1.5244141,1.5322266,1.5400391,1.5439453,1.5507812,1.5527344,1.5585938,1.5615234,1.5673828,1.5712891,1.5791016,1.5839844,1.5878906,1.5957031,1.5976562,1.6035156,1.5986328,1.5878906,1.4414062,1.1611328,1.1503906,1.1425781,1.1425781,1.1396484,1.140625,1.1386719,1.1367188,1.1357422,1.1347656,1.1337891,1.1328125,1.1318359,1.1318359,1.1308594,1.1289062,1.1289062,1.1279297,1.1269531,1.1259766,1.1259766,1.125,1.125,1.1240234,1.1240234,1.1240234,1.1230469,1.1220703,1.1220703,1.1210938,1.1210938,1.1210938,1.1201172,1.1201172,1.1191406,1.1191406,1.1181641,1.1181641,1.1171875,1.1171875,1.1171875,1.1171875,1.1162109,1.1171875,1.1171875,1.1152344,1.1152344,1.1142578,1.1132812,1.1103516,1.109375,1.1074219,1.1064453,1.1074219,1.1064453,1.1083984,1.1103516,1.1162109,1.125,1.1464844,1.1757812,1.1650391,1.15625,1.1337891,1.1240234,1.125,1.1240234,1.125,1.1240234,1.1230469,1.1230469,1.1230469,1.1240234,1.1240234,1.1240234,1.1240234,1.1240234,1.1240234,1.1240234,1.1230469,1.1230469,1.1230469,1.1230469,1.1230469,1.1230469,1.1230469,1.1230469,1.1230469,1.1230469,1.1230469,1.1220703,1.1220703,1.1220703,1.1210938,1.1220703,1.1210938,1.1210938,1.1220703,1.1220703,1.1220703,1.1210938,1.125,1.1308594,1.140625,1.1455078,1.1435547,1.1367188,1.1298828,1.1240234,1.1220703,1.1210938,1.1210938,1.1201172,1.1181641,1.1181641,1.1171875,1.1171875,1.1171875,1.1162109,1.1162109,1.1162109,1.1152344,1.1162109,1.1152344,1.1152344,1.1152344,1.1142578,1.1142578,1.1152344,1.1142578,1.1142578,1.1142578,1.1142578,1.1152344,1.1152344,1.1152344,1.1152344,1.1152344,1.1152344,1.1152344,1.1152344,1.1152344,1.1171875,1.1171875,1.1171875,1.1152344,1.1123047,1.1083984,1.1025391,1.0976562,1.0908203,1.0849609,1.0810547,1.0791016,1.0761719,1.0751953,1.0751953,1.0761719,1.0761719,1.0761719,1.0761719,1.0761719,1.0771484,1.0771484,1.0771484,1.078125,1.078125,1.078125,1.078125,1.0771484,1.078125,1.078125,1.078125,1.078125,1.0771484,1.0771484,1.0771484,1.0771484,1.0761719,1.0761719,1.0751953,1.0742188,1.0732422,1.0722656,1.0751953,1.0761719,1.0791016,1.0742188,1.0634766,1.0615234,1.0634766,1.0634766,1.0625,1.0615234,1.0605469,1.0595703,1.0585938,1.0566406,1.0537109,1.0527344,1.0507812,1.0478516,1.0478516,1.0478516,1.0488281,1.0517578,1.0566406,1.0634766,1.0703125,1.0800781,1.0898438,1.0859375,1.0830078,1.0839844,1.0810547,1.0732422,1.0654297,1.0605469,1.0566406,1.0507812,1.0439453,1.0390625,1.0341797,1.0292969,1.0234375,1.0185547,1.0136719,1.0107422,1.0078125,1.0048828,1.0029297,1.0009766,0.99902344,0.9970703,0.9951172,0.99316406
1.5244141,1.53125,1.5380859,1.5419922,1.5488281,1.5517578,1.5556641,1.5595703,1.5664062,1.5703125,1.578125,1.5839844,1.5878906,1.5966797,1.5986328,1.6054688,1.5957031,1.5498047,1.4033203,1.1572266,1.1494141,1.1425781,1.1416016,1.1386719,1.1386719,1.1376953,1.1367188,1.1347656,1.1337891,1.1328125,1.1328125,1.1318359,1.1308594,1.1298828,1.1289062,1.1279297,1.1269531,1.1259766,1.1259766,1.125,1.125,1.1240234,1.1240234,1.1230469,1.1230469,1.1230469,1.1220703,1.1220703,1.1210938,1.1210938,1.1201172,1.1201172,1.1201172,1.1191406,1.1191406,1.1181641,1.1181641,1.1171875,1.1171875,1.1171875,1.1162109,1.1162109,1.1162109,1.1152344,1.1152344,1.1152344,1.1142578,1.1132812,1.1103516,1.1083984,1.1074219,1.1064453,1.1074219,1.1064453,1.109375,1.1113281,1.1201172,1.1337891,1.1582031,1.1806641,1.1728516,1.1679688,1.1386719,1.1240234,1.125,1.1230469,1.1230469,1.1230469,1.1220703,1.1230469,1.1230469,1.1230469,1.1230469,1.1240234,1.1240234,1.1240234,1.1240234,1.1240234,1.1230469,1.1230469,1.1230469,1.1230469,1.1230469,1.1230469,1.1230469,1.1230469,1.1230469,1.1230469,1.1230469,1.1220703,1.1210938,1.1210938,1.1210938,1.1210938,1.1210938,1.1201172,1.1210938,1.1210938,1.1210938,1.1210938,1.125,1.1308594,1.140625,1.1455078,1.1425781,1.1357422,1.1289062,1.1240234,1.1220703,1.1201172,1.1201172,1.1191406,1.1181641,1.1171875,1.1162109,1.1162109,1.1162109,1.1162109,1.1152344,1.1152344,1.1152344,1.1152344,1.1152344,1.1142578,1.1142578,1.1132812,1.1142578,1.1152344,1.1142578,1.1132812,1.1132812,1.1142578,1.1142578,1.1142578,1.1142578,1.1142578,1.1142578,1.1142578,1.1152344,1.1142578,1.1152344,1.1162109,1.1162109,1.1162109,1.1142578,1.1123047,1.1083984,1.1044922,1.0996094,1.09375,1.0898438,1.0859375,1.0810547,1.078125,1.078125,1.0761719,1.0761719,1.0761719,1.0761719,1.0771484,1.0761719,1.0771484,1.0771484,1.078125,1.078125,1.078125,1.078125,1.0771484,1.0771484,1.0771484,1.0771484,1.0771484,1.078125,1.078125,1.078125,1.078125,1.078125,1.0771484,1.0771484,1.0751953,1.0732422,1.0722656,1.0703125,1.0712891,1.0712891,1.0664062,1.0576172,1.0546875,1.0556641,1.0556641,1.0556641,1.0556641,1.0546875,1.0537109,1.0537109,1.0537109,1.0527344,1.0507812,1.0498047,1.0488281,1.046875,1.046875,1.046875,1.046875,1.0478516,1.046875,1.0507812,1.0527344,1.0556641,1.0605469,1.0644531,1.0693359,1.0722656,1.0742188,1.0693359,1.0634766,1.0576172,1.0537109,1.0488281,1.0429688,1.0380859,1.0322266,1.0273438,1.0214844,1.0175781,1.0136719,1.0107422,1.0078125,1.0048828,1.0029297,1.0009766,0.9995117,0.99658203,0.99609375,0.9926758
1.5253906,1.53125,1.5380859,1.5419922,1.5478516,1.5498047,1.5546875,1.5585938,1.5644531,1.5683594,1.5771484,1.5839844,1.5869141,1.5947266,1.6015625,1.6074219,1.5957031,1.4628906,1.2792969,1.1582031,1.1494141,1.1425781,1.1416016,1.1386719,1.1386719,1.1376953,1.1357422,1.1347656,1.1337891,1.1328125,1.1318359,1.1308594,1.1308594,1.1298828,1.1279297,1.1279297,1.1269531,1.1259766,1.1259766,1.1259766,1.125,1.1240234,1.1240234,1.1230469,1.1220703,1.1230469,1.1230469,1.1220703,1.1210938,1.1201172,1.1201172,1.1201172,1.1191406,1.1191406,1.1191406,1.1181641,1.1181641,1.1171875,1.1162109,1.1162109,1.1162109,1.1152344,1.1152344,1.1152344,1.1152344,1.1142578,1.1142578,1.1123047,1.109375,1.1074219,1.1064453,1.1054688,1.1074219,1.1064453,1.1103516,1.1142578,1.1289062,1.1513672,1.1699219,1.1816406,1.1806641,1.1738281,1.1445312,1.1240234,1.125,1.1220703,1.1230469,1.1220703,1.1220703,1.1220703,1.1220703,1.1230469,1.1230469,1.1240234,1.1240234,1.1240234,1.1240234,1.1230469,1.1240234,1.1240234,1.1230469,1.1230469,1.1230469,1.1230469,1.1230469,1.1220703,1.1220703,1.1220703,1.1220703,1.1220703,1.1210938,1.1210938,1.1210938,1.1210938,1.1210938,1.1201172,1.1201172,1.1201172,1.1210938,1.1210938,1.125,1.1318359,1.1416016,1.1455078,1.1416016,1.1347656,1.1279297,1.1230469,1.1210938,1.1191406,1.1191406,1.1181641,1.1171875,1.1171875,1.1162109,1.1152344,1.1152344,1.1152344,1.1152344,1.1152344,1.1142578,1.1152344,1.1152344,1.1142578,1.1142578,1.1123047,1.1132812,1.1142578,1.1132812,1.1132812,1.1132812,1.1132812,1.1132812,1.1132812,1.1132812,1.1132812,1.1132812,1.1132812,1.1132812,1.1132812,1.1142578,1.1142578,1.1142578,1.1142578,1.1132812,1.1123047,1.109375,1.1064453,1.1035156,1.0976562,1.09375,1.0908203,1.0839844,1.0800781,1.0791016,1.0761719,1.0771484,1.0771484,1.0771484,1.0771484,1.0771484,1.0771484,1.0771484,1.078125,1.078125,1.078125,1.0771484,1.0771484,1.0771484,1.0771484,1.078125,1.078125,1.0791016,1.078125,1.0791016,1.0791016,1.0791016,1.0771484,1.0761719,1.0751953,1.0722656,1.0703125,1.0683594,1.0673828,1.0615234,1.0537109,1.0517578,1.0517578,1.0517578,1.0517578,1.0517578,1.0517578,1.0507812,1.0498047,1.0498047,1.0498047,1.0498047,1.0478516,1.046875,1.046875,1.046875,1.0458984,1.0449219,1.0449219,1.0449219,1.0458984,1.0449219,1.0449219,1.0449219,1.046875,1.0517578,1.0546875,1.0595703,1.0664062,1.0654297,1.0615234,1.0566406,1.0517578,1.046875,1.0410156,1.0361328,1.0302734,1.0253906,1.0205078,1.0166016,1.0126953,1.0097656,1.0068359,1.0039062,1.0019531,1.0009766,1.0,0.9975586,0.99609375,0.99560547
1.5244141,1.5292969,1.5380859,1.5400391,1.5458984,1.5488281,1.5527344,1.5556641,1.5615234,1.5644531,1.5732422,1.5800781,1.5820312,1.59375,1.6005859,1.609375,1.5947266,1.4648438,1.1962891,1.1611328,1.1474609,1.1425781,1.140625,1.1376953,1.1376953,1.1357422,1.1337891,1.1328125,1.1328125,1.1318359,1.1308594,1.1308594,1.1298828,1.1289062,1.1279297,1.1269531,1.1269531,1.1259766,1.1259766,1.125,1.1240234,1.1240234,1.1230469,1.1230469,1.1220703,1.1220703,1.1220703,1.1210938,1.1210938,1.1201172,1.1201172,1.1201172,1.1191406,1.1191406,1.1181641,1.1181641,1.1171875,1.1162109,1.1162109,1.1162109,1.1162109,1.1152344,1.1152344,1.1152344,1.1142578,1.1142578,1.1132812,1.1113281,1.1083984,1.1064453,1.1064453,1.1054688,1.1074219,1.1083984,1.1132812,1.1210938,1.1386719,1.1591797,1.1728516,1.1826172,1.1816406,1.1787109,1.1533203,1.1269531,1.125,1.1230469,1.1220703,1.1210938,1.1210938,1.1220703,1.1220703,1.1220703,1.1220703,1.1220703,1.1230469,1.1230469,1.1230469,1.1220703,1.1230469,1.1230469,1.1230469,1.1230469,1.1230469,1.1220703,1.1220703,1.1220703,1.1220703,1.1220703,1.1220703,1.1220703,1.1210938,1.1201172,1.1210938,1.1210938,1.1210938,1.1210938,1.1210938,1.1201172,1.1210938,1.1210938,1.1259766,1.1328125,1.1425781,1.1455078,1.1425781,1.1357422,1.1279297,1.1230469,1.1210938,1.1191406,1.1181641,1.1181641,1.1162109,1.1162109,1.1162109,1.1152344,1.1152344,1.1142578,1.1142578,1.1142578,1.1142578,1.1142578,1.1142578,1.1132812,1.1132812,1.1123047,1.1132812,1.1132812,1.1132812,1.1132812,1.1123047,1.1123047,1.1123047,1.1123047,1.1132812,1.1123047,1.1123047,1.1123047,1.1132812,1.1132812,1.1132812,1.1132812,1.1142578,1.1142578,1.1132812,1.1123047,1.1103516,1.1074219,1.1044922,1.1005859,1.0986328,1.0957031,1.0898438,1.0859375,1.0810547,1.078125,1.078125,1.078125,1.0771484,1.0771484,1.0771484,1.0771484,1.0771484,1.0771484,1.0771484,1.0771484,1.0771484,1.0761719,1.0761719,1.078125,1.078125,1.078125,1.0791016,1.078125,1.0791016,1.0791016,1.0791016,1.078125,1.0751953,1.0742188,1.0693359,1.0644531,1.0625,1.0595703,1.0546875,1.0527344,1.0527344,1.0517578,1.0517578,1.0517578,1.0517578,1.0517578,1.0507812,1.0498047,1.0498047,1.0498047,1.0488281,1.0478516,1.046875,1.046875,1.0458984,1.0449219,1.0449219,1.0439453,1.0449219,1.0439453,1.0439453,1.0429688,1.0429688,1.0429688,1.0458984,1.0458984,1.0498047,1.0546875,1.0546875,1.0537109,1.0527344,1.0498047,1.0458984,1.0410156,1.0351562,1.0292969,1.0244141,1.0195312,1.015625,1.0117188,1.0087891,1.0058594,1.0039062,1.0029297,1.0009766,1.0,0.99902344,0.9980469,0.9975586
1.5195312,1.5273438,1.5361328,1.5390625,1.5439453,1.546875,1.5507812,1.5546875,1.5595703,1.5615234,1.5693359,1.5761719,1.5830078,1.5947266,1.6035156,1.6074219,1.5869141,1.2695312,1.1972656,1.1679688,1.1484375,1.1435547,1.1396484,1.1367188,1.1367188,1.1347656,1.1328125,1.1318359,1.1318359,1.1308594,1.1308594,1.1308594,1.1298828,1.1289062,1.1279297,1.1269531,1.1259766,1.1259766,1.125,1.125,1.1240234,1.1230469,1.1220703,1.1220703,1.1220703,1.1220703,1.1210938,1.1201172,1.1201172,1.1201172,1.1201172,1.1201172,1.1191406,1.1191406,1.1181641,1.1171875,1.1171875,1.1162109,1.1162109,1.1152344,1.1162109,1.1152344,1.1152344,1.1142578,1.1132812,1.1142578,1.1123047,1.1103516,1.1074219,1.1054688,1.1054688,1.1044922,1.1083984,1.1103516,1.1171875,1.1328125,1.1513672,1.1660156,1.1738281,1.1835938,1.1816406,1.1777344,1.1601562,1.1337891,1.1269531,1.1230469,1.1220703,1.1210938,1.1210938,1.1220703,1.1220703,1.1210938,1.1210938,1.1210938,1.1220703,1.1220703,1.1220703,1.1220703,1.1220703,1.1230469,1.1230469,1.1230469,1.1220703,1.1220703,1.1220703,1.1220703,1.1220703,1.1220703,1.1210938,1.1210938,1.1210938,1.1201172,1.1201172,1.1220703,1.1210938,1.1201172,1.1210938,1.1201172,1.1210938,1.1210938,1.125,1.1337891,1.1435547,1.1464844,1.1435547,1.1347656,1.1289062,1.1220703,1.1201172,1.1181641,1.1181641,1.1171875,1.1162109,1.1162109,1.1152344,1.1152344,1.1142578,1.1142578,1.1152344,1.1142578,1.1142578,1.1142578,1.1142578,1.1132812,1.1123047,1.1123047,1.1132812,1.1123047,1.1123047,1.1123047,1.1123047,1.1123047,1.1123047,1.1123047,1.1123047,1.1113281,1.1113281,1.1123047,1.1123047,1.1132812,1.1132812,1.1132812,1.1132812,1.1132812,1.1123047,1.1123047,1.1103516,1.1083984,1.1054688,1.1025391,1.1015625,1.1015625,1.0966797,1.0927734,1.0849609,1.0800781,1.0791016,1.0791016,1.0791016,1.0771484,1.078125,1.0771484,1.0771484,1.0761719,1.0761719,1.0761719,1.0761719,1.0761719,1.0761719,1.0771484,1.078125,1.078125,1.078125,1.078125,1.0791016,1.0791016,1.0791016,1.0791016,1.0751953,1.0722656,1.0654297,1.0605469,1.0585938,1.0556641,1.0537109,1.0517578,1.0517578,1.0498047,1.0498047,1.0498047,1.0507812,1.0507812,1.0498047,1.0498047,1.0488281,1.0498047,1.0488281,1.0478516,1.046875,1.0458984,1.0449219,1.0449219,1.0439453,1.0429688,1.0419922,1.0429688,1.0419922,1.0419922,1.0410156,1.0410156,1.0410156,1.0419922,1.0449219,1.0478516,1.0488281,1.0498047,1.0498047,1.046875,1.0439453,1.0410156,1.0341797,1.0273438,1.0234375,1.0185547,1.0146484,1.0107422,1.0078125,1.0058594,1.0039062,1.0029297,1.0009766,1.0,0.99902344,0.9970703,0.99902344
1.515625,1.5234375,1.5332031,1.5361328,1.5410156,1.5429688,1.5458984,1.5507812,1.5546875,1.5576172,1.5644531,1.5673828,1.5761719,1.5888672,1.5830078,1.5878906,1.5576172,1.2919922,1.2119141,1.1650391,1.1474609,1.1416016,1.1386719,1.1357422,1.1357422,1.1337891,1.1318359,1.1318359,1.1308594,1.1308594,1.1298828,1.1289062,1.1289062,1.1279297,1.1269531,1.1269531,1.1259766,1.1259766,1.125,1.1240234,1.1230469,1.1230469,1.1220703,1.1220703,1.1220703,1.1220703,1.1201172,1.1201172,1.1201172,1.1201172,1.1191406,1.1191406,1.1191406,1.1181641,1.1181641,1.1171875,1.1162109,1.1162109,1.1152344,1.1142578,1.1142578,1.1142578,1.1142578,1.1142578,1.1132812,1.1132812,1.1113281,1.109375,1.1074219,1.1044922,1.1054688,1.1054688,1.109375,1.1113281,1.1210938,1.1416016,1.15625,1.1660156,1.1757812,1.1816406,1.1835938,1.1865234,1.1787109,1.1611328,1.1357422,1.1240234,1.1230469,1.1210938,1.1220703,1.1210938,1.1220703,1.1210938,1.1201172,1.1201172,1.1210938,1.1210938,1.1210938,1.1210938,1.1220703,1.1230469,1.1220703,1.1220703,1.1220703,1.1210938,1.1210938,1.1210938,1.1220703,1.1210938,1.1210938,1.1210938,1.1201172,1.1201172,1.1201172,1.1220703,1.1220703,1.1210938,1.1220703,1.1201172,1.1210938,1.1220703,1.1259766,1.1337891,1.1455078,1.1484375,1.1445312,1.1337891,1.1269531,1.1220703,1.1201172,1.1171875,1.1171875,1.1162109,1.1162109,1.1152344,1.1142578,1.1152344,1.1142578,1.1142578,1.1142578,1.1142578,1.1142578,1.1142578,1.1132812,1.1123047,1.1123047,1.1123047,1.1123047,1.1123047,1.1123047,1.1113281,1.1113281,1.1113281,1.1113281,1.1113281,1.1123047,1.1113281,1.1113281,1.1123047,1.1123047,1.1132812,1.1132812,1.1132812,1.1132812,1.1123047,1.1123047,1.1123047,1.1113281,1.1083984,1.1064453,1.1044922,1.1035156,1.1035156,1.1025391,1.0966797,1.0898438,1.0839844,1.0830078,1.0810547,1.0800781,1.0791016,1.078125,1.0771484,1.0771484,1.0771484,1.0761719,1.0771484,1.0761719,1.0761719,1.0761719,1.0771484,1.078125,1.078125,1.078125,1.078125,1.0791016,1.0791016,1.078125,1.0771484,1.0703125,1.0654297,1.0595703,1.0556641,1.0546875,1.0527344,1.0517578,1.0507812,1.0498047,1.0488281,1.0488281,1.0488281,1.0498047,1.0498047,1.0498047,1.0488281,1.0488281,1.0498047,1.0488281,1.0478516,1.046875,1.0458984,1.0458984,1.0449219,1.0439453,1.0429688,1.0419922,1.0410156,1.0410156,1.0410156,1.0400391,1.0400391,1.0400391,1.0400391,1.0419922,1.0449219,1.046875,1.0478516,1.0478516,1.0458984,1.0419922,1.0390625,1.0332031,1.0273438,1.0224609,1.0175781,1.0136719,1.0107422,1.0078125,1.0058594,1.0039062,1.0029297,1.0,1.0,1.0,0.9995117,1.0
1.5146484,1.5205078,1.5283203,1.53125,1.5371094,1.5390625,1.5429688,1.5458984,1.5507812,1.5537109,1.5566406,1.5566406,1.5585938,1.5595703,1.5488281,1.5585938,1.5292969,1.4667969,1.2197266,1.1611328,1.1484375,1.1416016,1.1386719,1.1357422,1.1347656,1.1328125,1.1318359,1.1308594,1.1298828,1.1298828,1.1298828,1.1289062,1.1289062,1.1279297,1.1269531,1.1259766,1.1259766,1.125,1.1240234,1.1230469,1.1230469,1.1230469,1.1220703,1.1220703,1.1220703,1.1210938,1.1201172,1.1201172,1.1191406,1.1191406,1.1191406,1.1191406,1.1181641,1.1181641,1.1181641,1.1171875,1.1162109,1.1152344,1.1152344,1.1142578,1.1142578,1.1142578,1.1142578,1.1132812,1.1132812,1.1123047,1.1103516,1.1083984,1.1064453,1.1035156,1.1054688,1.1054688,1.1103516,1.1132812,1.1279297,1.1484375,1.1591797,1.1679688,1.1757812,1.1806641,1.1826172,1.1884766,1.1884766,1.1835938,1.1445312,1.1240234,1.1230469,1.1220703,1.1230469,1.1210938,1.1210938,1.1201172,1.1191406,1.1191406,1.1201172,1.1210938,1.1210938,1.1210938,1.1210938,1.1220703,1.1220703,1.1220703,1.1210938,1.1210938,1.1210938,1.1210938,1.1220703,1.1210938,1.1210938,1.1210938,1.1201172,1.1201172,1.1210938,1.1220703,1.1220703,1.1210938,1.1220703,1.1210938,1.1210938,1.1240234,1.1279297,1.1367188,1.1484375,1.1533203,1.1455078,1.1328125,1.1269531,1.1210938,1.1191406,1.1171875,1.1162109,1.1162109,1.1152344,1.1152344,1.1142578,1.1142578,1.1142578,1.1132812,1.1132812,1.1132812,1.1142578,1.1132812,1.1123047,1.1123047,1.1113281,1.1113281,1.1113281,1.1123047,1.1123047,1.1113281,1.1113281,1.1113281,1.1113281,1.1113281,1.1123047,1.1113281,1.1113281,1.1123047,1.1123047,1.1132812,1.1132812,1.1132812,1.1132812,1.1123047,1.1123047,1.1113281,1.1103516,1.109375,1.1083984,1.1064453,1.1054688,1.1035156,1.1044922,1.1035156,1.0947266,1.0908203,1.0859375,1.0839844,1.0810547,1.0800781,1.0791016,1.078125,1.0771484,1.0771484,1.0771484,1.0771484,1.0761719,1.0751953,1.0761719,1.0761719,1.0771484,1.0771484,1.0771484,1.0771484,1.078125,1.078125,1.0761719,1.0751953,1.0683594,1.0605469,1.0556641,1.0527344,1.0517578,1.0498047,1.0498047,1.0488281,1.0478516,1.0478516,1.0488281,1.0498047,1.0498047,1.0498047,1.0498047,1.0488281,1.0488281,1.0498047,1.0488281,1.0478516,1.0478516,1.0458984,1.0458984,1.0449219,1.0439453,1.0429688,1.0419922,1.0410156,1.0410156,1.0400391,1.0380859,1.0380859,1.0380859,1.0380859,1.0400391,1.0419922,1.0439453,1.0458984,1.0458984,1.0449219,1.0410156,1.0371094,1.0322266,1.0263672,1.0214844,1.0166016,1.0126953,1.0097656,1.0078125,1.0058594,1.0039062,1.0029297,1.0009766,1.0009766,1.0009766,1.0,1.0009766
1.5107422,1.5175781,1.5253906,1.5273438,1.5322266,1.5341797,1.5380859,1.5419922,1.5449219,1.5458984,1.546875,1.5449219,1.5458984,1.5419922,1.5419922,1.5429688,1.5205078,1.4433594,1.21875,1.1630859,1.1503906,1.1416016,1.1376953,1.1337891,1.1328125,1.1318359,1.1298828,1.1298828,1.1289062,1.1289062,1.1289062,1.1289062,1.1279297,1.1269531,1.1259766,1.125,1.125,1.125,1.1240234,1.1230469,1.1230469,1.1230469,1.1220703,1.1220703,1.1210938,1.1210938,1.1201172,1.1191406,1.1191406,1.1191406,1.1191406,1.1181641,1.1181641,1.1171875,1.1171875,1.1171875,1.1162109,1.1152344,1.1152344,1.1142578,1.1142578,1.1132812,1.1132812,1.1132812,1.1123047,1.1113281,1.109375,1.1083984,1.1064453,1.1035156,1.1054688,1.1064453,1.1113281,1.1162109,1.1318359,1.1494141,1.1601562,1.1679688,1.1748047,1.1767578,1.1787109,1.1826172,1.1855469,1.1835938,1.1650391,1.1328125,1.1269531,1.1240234,1.1240234,1.1220703,1.1210938,1.1201172,1.1191406,1.1191406,1.1201172,1.1201172,1.1201172,1.1201172,1.1210938,1.1220703,1.1210938,1.1210938,1.1210938,1.1210938,1.1210938,1.1210938,1.1210938,1.1210938,1.1210938,1.1210938,1.1210938,1.1210938,1.1220703,1.1230469,1.1230469,1.1230469,1.1230469,1.1240234,1.125,1.1279297,1.1328125,1.1435547,1.1582031,1.1630859,1.1474609,1.1328125,1.1269531,1.1210938,1.1191406,1.1162109,1.1162109,1.1162109,1.1152344,1.1152344,1.1142578,1.1142578,1.1142578,1.1142578,1.1142578,1.1142578,1.1132812,1.1132812,1.1123047,1.1123047,1.1123047,1.1123047,1.1123047,1.1123047,1.1113281,1.1113281,1.1103516,1.1103516,1.1113281,1.1113281,1.1113281,1.1113281,1.1113281,1.1123047,1.1123047,1.1132812,1.1132812,1.1132812,1.1132812,1.1123047,1.1123047,1.1113281,1.1103516,1.109375,1.1083984,1.1074219,1.1064453,1.1054688,1.1054688,1.1044922,1.1025391,1.0957031,1.0947266,1.0888672,1.0849609,1.0810547,1.0800781,1.078125,1.078125,1.0771484,1.0761719,1.0761719,1.0761719,1.0751953,1.0771484,1.0761719,1.0771484,1.078125,1.0771484,1.0771484,1.078125,1.0771484,1.0742188,1.0722656,1.0654297,1.0585938,1.0556641,1.0527344,1.0517578,1.0498047,1.0488281,1.0488281,1.0478516,1.0478516,1.0488281,1.0498047,1.0498047,1.0498047,1.0498047,1.0498047,1.0498047,1.0498047,1.0488281,1.0478516,1.046875,1.0458984,1.0458984,1.0449219,1.0439453,1.0429688,1.0419922,1.0410156,1.0400391,1.0390625,1.0380859,1.0371094,1.0380859,1.0380859,1.0400391,1.0419922,1.0429688,1.0429688,1.0429688,1.0419922,1.0390625,1.0371094,1.03125,1.0263672,1.0214844,1.0166016,1.0126953,1.0097656,1.0078125,1.0058594,1.0039062,1.0029297,1.0009766,1.0009766,1.0009766,0.9995117,1.0019531
1.5029297,1.5146484,1.5205078,1.5234375,1.5292969,1.53125,1.5341797,1.5380859,1.5390625,1.5400391,1.5380859,1.5371094,1.5410156,1.5361328,1.5322266,1.5273438,1.5068359,1.3798828,1.3173828,1.1669922,1.1523438,1.1425781,1.1376953,1.1337891,1.1328125,1.1308594,1.1298828,1.1289062,1.1279297,1.1279297,1.1279297,1.1279297,1.1279297,1.1269531,1.1259766,1.125,1.125,1.1240234,1.1240234,1.1220703,1.1230469,1.1220703,1.1220703,1.1210938,1.1201172,1.1201172,1.1191406,1.1191406,1.1191406,1.1191406,1.1191406,1.1181641,1.1181641,1.1171875,1.1171875,1.1162109,1.1162109,1.1152344,1.1152344,1.1142578,1.1142578,1.1132812,1.1132812,1.1123047,1.1113281,1.1113281,1.109375,1.1074219,1.1064453,1.1035156,1.1054688,1.1074219,1.1132812,1.1220703,1.1386719,1.1503906,1.1601562,1.1679688,1.1728516,1.1748047,1.1748047,1.1757812,1.1787109,1.1855469,1.1738281,1.1455078,1.1328125,1.1259766,1.125,1.1230469,1.1220703,1.1201172,1.1201172,1.1201172,1.1201172,1.1201172,1.1201172,1.1201172,1.1210938,1.1210938,1.1210938,1.1210938,1.1210938,1.1210938,1.1210938,1.1210938,1.1210938,1.1210938,1.1210938,1.1210938,1.1210938,1.1220703,1.1220703,1.1240234,1.1240234,1.1240234,1.1240234,1.125,1.1279297,1.1318359,1.1396484,1.1601562,1.1708984,1.1728516,1.1503906,1.1337891,1.1269531,1.1210938,1.1191406,1.1162109,1.1162109,1.1152344,1.1152344,1.1152344,1.1142578,1.1142578,1.1142578,1.1142578,1.1142578,1.1132812,1.1142578,1.1132812,1.1123047,1.1123047,1.1123047,1.1113281,1.1123047,1.1113281,1.1113281,1.1103516,1.1103516,1.1103516,1.1113281,1.1113281,1.1113281,1.1113281,1.1113281,1.1123047,1.1132812,1.1132812,1.1132812,1.1123047,1.1123047,1.1123047,1.1113281,1.1113281,1.1103516,1.109375,1.1083984,1.1083984,1.1083984,1.1074219,1.1074219,1.1074219,1.1064453,1.1083984,1.1035156,1.0986328,1.0878906,1.0830078,1.0810547,1.0800781,1.078125,1.0791016,1.078125,1.0771484,1.0771484,1.0761719,1.0771484,1.0771484,1.078125,1.0791016,1.078125,1.078125,1.078125,1.0771484,1.0742188,1.0703125,1.0644531,1.0566406,1.0546875,1.0517578,1.0507812,1.0498047,1.0488281,1.0478516,1.0478516,1.0488281,1.0478516,1.0488281,1.0498047,1.0507812,1.0498047,1.0498047,1.0498047,1.0498047,1.0488281,1.0478516,1.046875,1.0458984,1.0458984,1.0449219,1.0439453,1.0429688,1.0419922,1.0410156,1.0410156,1.0390625,1.0380859,1.0380859,1.0371094,1.0380859,1.0390625,1.0400391,1.0410156,1.0410156,1.0410156,1.0410156,1.0390625,1.0361328,1.03125,1.0253906,1.0205078,1.015625,1.0117188,1.0087891,1.0068359,1.0058594,1.0039062,1.0029297,1.0009766,1.0009766,1.0009766,0.9995117,1.0029297
1.4941406,1.5039062,1.5097656,1.5126953,1.5195312,1.5224609,1.5263672,1.5292969,1.53125,1.5292969,1.5283203,1.5234375,1.53125,1.5253906,1.5244141,1.5253906,1.5019531,1.4199219,1.3603516,1.1855469,1.1601562,1.1445312,1.1376953,1.1328125,1.1328125,1.1298828,1.1298828,1.1289062,1.1279297,1.1269531,1.1269531,1.1279297,1.1269531,1.1269531,1.1259766,1.125,1.125,1.1240234,1.1230469,1.1230469,1.1220703,1.1210938,1.1210938,1.1210938,1.1201172,1.1191406,1.1191406,1.1181641,1.1181641,1.1181641,1.1181641,1.1171875,1.1171875,1.1162109,1.1162109,1.1162109,1.1152344,1.1152344,1.1152344,1.1142578,1.1142578,1.1132812,1.1132812,1.1132812,1.1113281,1.1103516,1.1083984,1.1074219,1.1064453,1.1035156,1.1054688,1.1083984,1.1142578,1.1259766,1.1416016,1.1533203,1.1611328,1.1679688,1.1728516,1.1738281,1.1738281,1.1728516,1.1728516,1.1777344,1.1787109,1.1621094,1.1416016,1.1318359,1.1279297,1.1230469,1.1220703,1.1201172,1.1201172,1.1191406,1.1201172,1.1201172,1.1201172,1.1191406,1.1201172,1.1210938,1.1210938,1.1210938,1.1210938,1.1210938,1.1210938,1.1210938,1.1220703,1.1220703,1.1220703,1.1220703,1.1220703,1.1230469,1.1240234,1.1259766,1.1259766,1.1269531,1.1279297,1.1298828,1.1347656,1.1425781,1.1503906,1.1689453,1.1923828,1.1933594,1.1601562,1.1357422,1.1279297,1.1201172,1.1181641,1.1142578,1.1142578,1.1132812,1.1132812,1.1132812,1.1132812,1.1132812,1.1132812,1.1132812,1.1132812,1.1123047,1.1123047,1.1113281,1.1113281,1.1113281,1.1103516,1.1103516,1.1113281,1.1113281,1.1113281,1.1103516,1.1113281,1.1113281,1.1103516,1.1113281,1.1103516,1.1113281,1.1113281,1.1113281,1.1132812,1.1132812,1.1123047,1.1123047,1.1113281,1.1113281,1.1113281,1.1113281,1.1103516,1.109375,1.109375,1.109375,1.109375,1.1083984,1.109375,1.1083984,1.1064453,1.1074219,1.1123047,1.1044922,1.0957031,1.0878906,1.0849609,1.0810547,1.0800781,1.0791016,1.078125,1.078125,1.078125,1.0771484,1.0771484,1.0761719,1.0771484,1.078125,1.078125,1.078125,1.078125,1.0761719,1.0732422,1.0683594,1.0625,1.0556641,1.0537109,1.0517578,1.0507812,1.0488281,1.0488281,1.0488281,1.0488281,1.0488281,1.0488281,1.0498047,1.0498047,1.0507812,1.0498047,1.0498047,1.0498047,1.0498047,1.0478516,1.0478516,1.046875,1.0458984,1.0458984,1.0449219,1.0439453,1.0429688,1.0419922,1.0410156,1.0410156,1.0400391,1.0390625,1.0380859,1.0380859,1.0380859,1.0390625,1.0400391,1.0410156,1.0400391,1.0410156,1.0400391,1.0380859,1.0361328,1.03125,1.0263672,1.0205078,1.015625,1.0126953,1.0097656,1.0068359,1.0058594,1.0039062,1.0029297,1.0019531,1.0029297,1.0058594,1.0039062,1.0048828
1.4882812,1.4960938,1.5009766,1.5068359,1.5117188,1.515625,1.5195312,1.5224609,1.5244141,1.5185547,1.5136719,1.5146484,1.5234375,1.5175781,1.5263672,1.5175781,1.4726562,1.4404297,1.3857422,1.2060547,1.1669922,1.1494141,1.1396484,1.1337891,1.1328125,1.1308594,1.1289062,1.1279297,1.1269531,1.1259766,1.1269531,1.1269531,1.1269531,1.1259766,1.1259766,1.125,1.1240234,1.1230469,1.1230469,1.1230469,1.1220703,1.1210938,1.1201172,1.1201172,1.1201172,1.1191406,1.1181641,1.1181641,1.1181641,1.1181641,1.1171875,1.1171875,1.1162109,1.1162109,1.1162109,1.1162109,1.1152344,1.1152344,1.1142578,1.1142578,1.1132812,1.1132812,1.1132812,1.1132812,1.1113281,1.109375,1.1083984,1.1064453,1.1064453,1.1035156,1.1064453,1.109375,1.1162109,1.1298828,1.1445312,1.1542969,1.1621094,1.1669922,1.1708984,1.1738281,1.1728516,1.1699219,1.1708984,1.1738281,1.1777344,1.1748047,1.1582031,1.1386719,1.1318359,1.1259766,1.1240234,1.1210938,1.1210938,1.1201172,1.1201172,1.1201172,1.1201172,1.1191406,1.1201172,1.1210938,1.1210938,1.1210938,1.1210938,1.1210938,1.1220703,1.1210938,1.1220703,1.1220703,1.1220703,1.1230469,1.1230469,1.125,1.1259766,1.1269531,1.1269531,1.1279297,1.1318359,1.1367188,1.1445312,1.1533203,1.1621094,1.1904297,1.3789062,1.4003906,1.1689453,1.1386719,1.1269531,1.1201172,1.1171875,1.1132812,1.1132812,1.1132812,1.1123047,1.1123047,1.1123047,1.1123047,1.1123047,1.1123047,1.1123047,1.1123047,1.1113281,1.1113281,1.1103516,1.1103516,1.1103516,1.1103516,1.1103516,1.1103516,1.1103516,1.1103516,1.1103516,1.1103516,1.1113281,1.1113281,1.1113281,1.1103516,1.1113281,1.1113281,1.1123047,1.1123047,1.1123047,1.1113281,1.1123047,1.1113281,1.1103516,1.1103516,1.1103516,1.1103516,1.109375,1.109375,1.1103516,1.109375,1.1083984,1.1083984,1.1064453,1.1064453,1.1103516,1.1113281,1.1015625,1.0976562,1.0917969,1.0869141,1.0839844,1.0810547,1.0791016,1.0791016,1.078125,1.078125,1.0771484,1.0761719,1.0771484,1.078125,1.0771484,1.078125,1.078125,1.0761719,1.0712891,1.0673828,1.0615234,1.0566406,1.0546875,1.0527344,1.0517578,1.0498047,1.0498047,1.0498047,1.0498047,1.0498047,1.0498047,1.0498047,1.0498047,1.0507812,1.0507812,1.0498047,1.0498047,1.0498047,1.0488281,1.0478516,1.046875,1.0458984,1.0449219,1.0449219,1.0439453,1.0439453,1.0429688,1.0419922,1.0410156,1.0400391,1.0390625,1.0380859,1.0380859,1.0390625,1.0390625,1.0390625,1.0400391,1.0390625,1.0390625,1.0390625,1.0371094,1.0351562,1.0302734,1.0253906,1.0205078,1.015625,1.0117188,1.0097656,1.0068359,1.0058594,1.0039062,1.0039062,1.0048828,1.0068359,1.0097656,1.0126953,1.0078125
1.4785156,1.4873047,1.4941406,1.4970703,1.5039062,1.5078125,1.5097656,1.5087891,1.5126953,1.5126953,1.5087891,1.4951172,1.5039062,1.5146484,1.5078125,1.4951172,1.4638672,1.3935547,1.359375,1.3115234,1.1787109,1.15625,1.1455078,1.1357422,1.1328125,1.1308594,1.1289062,1.1279297,1.1269531,1.1259766,1.1259766,1.1259766,1.1259766,1.1259766,1.125,1.1240234,1.1240234,1.1230469,1.1220703,1.1220703,1.1220703,1.1210938,1.1201172,1.1201172,1.1191406,1.1191406,1.1181641,1.1171875,1.1181641,1.1171875,1.1171875,1.1162109,1.1162109,1.1152344,1.1152344,1.1152344,1.1152344,1.1142578,1.1142578,1.1142578,1.1132812,1.1132812,1.1123047,1.1123047,1.1103516,1.109375,1.1074219,1.1064453,1.1064453,1.1044922,1.1064453,1.109375,1.1171875,1.1318359,1.1455078,1.1552734,1.1611328,1.1660156,1.1689453,1.1728516,1.1708984,1.1689453,1.1708984,1.1728516,1.1728516,1.1728516,1.1660156,1.1503906,1.1396484,1.1337891,1.1269531,1.1230469,1.1230469,1.1220703,1.1220703,1.1220703,1.1220703,1.1220703,1.1220703,1.1220703,1.1220703,1.1220703,1.1220703,1.1220703,1.1220703,1.1220703,1.1230469,1.1230469,1.1240234,1.1259766,1.1269531,1.1279297,1.1298828,1.1308594,1.1337891,1.1367188,1.1464844,1.1503906,1.1591797,1.1728516,1.2226562,1.4433594,1.4472656,1.4580078,1.2783203,1.1474609,1.1318359,1.1201172,1.1162109,1.1132812,1.1132812,1.1113281,1.1113281,1.1113281,1.1113281,1.1123047,1.1123047,1.1123047,1.1123047,1.1123047,1.1113281,1.1113281,1.1103516,1.1103516,1.1103516,1.1103516,1.1103516,1.1103516,1.109375,1.109375,1.1103516,1.1103516,1.1103516,1.1113281,1.1113281,1.1113281,1.1113281,1.1113281,1.1123047,1.1123047,1.1123047,1.1123047,1.1113281,1.1113281,1.1113281,1.1113281,1.1103516,1.109375,1.109375,1.109375,1.109375,1.109375,1.109375,1.109375,1.109375,1.1074219,1.1064453,1.1083984,1.109375,1.1083984,1.1054688,1.1035156,1.0966797,1.0917969,1.0878906,1.0849609,1.0839844,1.0810547,1.0810547,1.0791016,1.0810547,1.0830078,1.0830078,1.0830078,1.0810547,1.0771484,1.0722656,1.0673828,1.0625,1.0576172,1.0556641,1.0527344,1.0517578,1.0507812,1.0498047,1.0498047,1.0507812,1.0498047,1.0498047,1.0498047,1.0507812,1.0507812,1.0498047,1.0498047,1.0488281,1.0488281,1.0478516,1.046875,1.046875,1.0449219,1.0449219,1.0449219,1.0439453,1.0439453,1.0429688,1.0419922,1.0419922,1.0410156,1.0400391,1.0390625,1.0390625,1.0390625,1.0390625,1.0390625,1.0390625,1.0390625,1.0380859,1.0380859,1.0371094,1.0351562,1.0302734,1.0253906,1.0205078,1.015625,1.0126953,1.0107422,1.0078125,1.0058594,1.0048828,1.0068359,1.0087891,1.0117188,1.0166016,1.0175781,1.0097656
1.4736328,1.4804688,1.4882812,1.4931641,1.4990234,1.5039062,1.5019531,1.5019531,1.5078125,1.4931641,1.484375,1.5029297,1.5224609,1.5107422,1.5068359,1.4853516,1.4306641,1.4091797,1.3505859,1.3076172,1.1982422,1.1640625,1.1503906,1.1376953,1.1347656,1.1318359,1.1298828,1.1279297,1.1259766,1.1259766,1.125,1.125,1.125,1.125,1.1240234,1.1240234,1.1230469,1.1230469,1.1220703,1.1220703,1.1210938,1.1210938,1.1201172,1.1191406,1.1191406,1.1181641,1.1181641,1.1171875,1.1171875,1.1162109,1.1162109,1.1162109,1.1152344,1.1162109,1.1152344,1.1142578,1.1142578,1.1142578,1.1142578,1.1142578,1.1132812,1.1123047,1.1123047,1.1123047,1.1103516,1.109375,1.1083984,1.1064453,1.1064453,1.1044922,1.1074219,1.1103516,1.1191406,1.1337891,1.1464844,1.1552734,1.1621094,1.1669922,1.1689453,1.1708984,1.1699219,1.1699219,1.1699219,1.1689453,1.1699219,1.1708984,1.1689453,1.1591797,1.1542969,1.1445312,1.1337891,1.1269531,1.1259766,1.125,1.1240234,1.1240234,1.1240234,1.1240234,1.1240234,1.1230469,1.1240234,1.1240234,1.1240234,1.1240234,1.1230469,1.1240234,1.125,1.125,1.1269531,1.1289062,1.1298828,1.1328125,1.1347656,1.1347656,1.1376953,1.1425781,1.1552734,1.1738281,1.1816406,1.2460938,1.3085938,1.453125,1.4560547,1.4755859,1.4697266,1.1757812,1.140625,1.1210938,1.1171875,1.1132812,1.1123047,1.109375,1.1103516,1.1103516,1.1103516,1.1113281,1.1113281,1.1113281,1.1103516,1.1103516,1.1103516,1.1113281,1.1103516,1.1103516,1.1103516,1.109375,1.109375,1.109375,1.109375,1.109375,1.109375,1.1103516,1.1103516,1.1103516,1.1103516,1.1113281,1.1113281,1.1123047,1.1123047,1.1123047,1.1123047,1.1123047,1.1123047,1.1123047,1.1113281,1.1103516,1.1103516,1.109375,1.109375,1.109375,1.1103516,1.109375,1.1103516,1.1103516,1.109375,1.1083984,1.1074219,1.1074219,1.109375,1.1113281,1.1123047,1.1132812,1.109375,1.1064453,1.1005859,1.0986328,1.0917969,1.0878906,1.0869141,1.0869141,1.0888672,1.0908203,1.0888672,1.0878906,1.0830078,1.0771484,1.0732422,1.0673828,1.0625,1.0585938,1.0556641,1.0527344,1.0517578,1.0507812,1.0507812,1.0498047,1.0498047,1.0498047,1.0498047,1.0498047,1.0498047,1.0498047,1.0498047,1.0488281,1.0488281,1.0488281,1.0478516,1.046875,1.0458984,1.0458984,1.0449219,1.0449219,1.0439453,1.0439453,1.0429688,1.0419922,1.0419922,1.0410156,1.0410156,1.0390625,1.0400391,1.0400391,1.0400391,1.0400391,1.0400391,1.0400391,1.0390625,1.0390625,1.0371094,1.0351562,1.03125,1.0263672,1.0205078,1.015625,1.0126953,1.0107422,1.0078125,1.0058594,1.0058594,1.0068359,1.0107422,1.0146484,1.0175781,1.0195312,1.0136719
1.4677734,1.4746094,1.4814453,1.4853516,1.4892578,1.4931641,1.4921875,1.4960938,1.4941406,1.4794922,1.4951172,1.5,1.4941406,1.4785156,1.3027344,1.2324219,1.25,1.21875,1.21875,1.2089844,1.1962891,1.1679688,1.1542969,1.1425781,1.1376953,1.1328125,1.1308594,1.1279297,1.1259766,1.125,1.125,1.125,1.125,1.1240234,1.1240234,1.1240234,1.1220703,1.1220703,1.1220703,1.1220703,1.1210938,1.1201172,1.1201172,1.1191406,1.1191406,1.1181641,1.1171875,1.1162109,1.1171875,1.1162109,1.1162109,1.1152344,1.1152344,1.1152344,1.1152344,1.1142578,1.1142578,1.1142578,1.1142578,1.1132812,1.1123047,1.1123047,1.1123047,1.1113281,1.109375,1.109375,1.1074219,1.1054688,1.1064453,1.1044922,1.1074219,1.1123047,1.1210938,1.1347656,1.1484375,1.1572266,1.1630859,1.1679688,1.1689453,1.1699219,1.1689453,1.1689453,1.1679688,1.1669922,1.1679688,1.1679688,1.1679688,1.1630859,1.1601562,1.1572266,1.1464844,1.1386719,1.1347656,1.1318359,1.1289062,1.1279297,1.1279297,1.1279297,1.1279297,1.1269531,1.1279297,1.1279297,1.1269531,1.1269531,1.1269531,1.1269531,1.1279297,1.1289062,1.1328125,1.1357422,1.1367188,1.1386719,1.140625,1.1464844,1.1523438,1.1572266,1.1679688,1.1894531,1.2255859,1.3222656,1.4492188,1.4570312,1.4580078,1.4697266,1.4658203,1.4658203,1.1503906,1.1259766,1.1210938,1.1123047,1.1113281,1.1083984,1.109375,1.1103516,1.1103516,1.1103516,1.1103516,1.1113281,1.1103516,1.1103516,1.1103516,1.1103516,1.1103516,1.109375,1.109375,1.109375,1.109375,1.109375,1.109375,1.109375,1.109375,1.1103516,1.1103516,1.1103516,1.1103516,1.1103516,1.1103516,1.1103516,1.1103516,1.1113281,1.1113281,1.1113281,1.1103516,1.1103516,1.1103516,1.109375,1.109375,1.109375,1.109375,1.1083984,1.109375,1.109375,1.109375,1.1103516,1.109375,1.1083984,1.1083984,1.1083984,1.1083984,1.1083984,1.1083984,1.1103516,1.1103516,1.109375,1.1083984,1.1064453,1.1035156,1.1005859,1.0996094,1.0976562,1.0976562,1.0966797,1.0927734,1.0898438,1.0839844,1.078125,1.0732422,1.0683594,1.0644531,1.0595703,1.0556641,1.0537109,1.0517578,1.0507812,1.0498047,1.0507812,1.0498047,1.0498047,1.0498047,1.0498047,1.0498047,1.0498047,1.0498047,1.0488281,1.0478516,1.0478516,1.0478516,1.046875,1.0458984,1.0458984,1.0449219,1.0449219,1.0449219,1.0439453,1.0429688,1.0429688,1.0429688,1.0419922,1.0410156,1.0400391,1.0400391,1.0400391,1.0410156,1.0400391,1.0400391,1.0400391,1.0400391,1.0390625,1.0380859,1.0361328,1.03125,1.0263672,1.0205078,1.0166016,1.0136719,1.0107422,1.0087891,1.0068359,1.0068359,1.0097656,1.0126953,1.015625,1.0175781,1.0175781,1.0166016
1.4599609,1.46875,1.4736328,1.4775391,1.484375,1.4902344,1.4912109,1.4824219,1.5097656,1.515625,1.4716797,1.4013672,1.2177734,1.2080078,1.203125,1.1992188,1.1933594,1.1923828,1.1933594,1.1933594,1.1884766,1.1777344,1.1611328,1.1474609,1.1416016,1.1337891,1.1308594,1.1279297,1.1259766,1.1259766,1.125,1.1240234,1.1240234,1.1240234,1.1230469,1.1230469,1.1230469,1.1220703,1.1220703,1.1210938,1.1201172,1.1201172,1.1201172,1.1191406,1.1181641,1.1171875,1.1171875,1.1162109,1.1162109,1.1152344,1.1152344,1.1142578,1.1142578,1.1142578,1.1142578,1.1142578,1.1132812,1.1132812,1.1132812,1.1132812,1.1123047,1.1113281,1.1113281,1.1113281,1.109375,1.1083984,1.1064453,1.1054688,1.1054688,1.1044922,1.1083984,1.1132812,1.1230469,1.1367188,1.1494141,1.1582031,1.1630859,1.1679688,1.1669922,1.1679688,1.1679688,1.1679688,1.1679688,1.1669922,1.1669922,1.1669922,1.1669922,1.1660156,1.1640625,1.1621094,1.1582031,1.1503906,1.1455078,1.140625,1.1367188,1.1347656,1.1337891,1.1328125,1.1328125,1.1328125,1.1328125,1.1328125,1.1318359,1.1308594,1.1298828,1.1298828,1.1337891,1.1318359,1.1347656,1.1416016,1.1464844,1.1533203,1.1582031,1.1591797,1.1601562,1.1757812,1.2001953,1.2539062,1.4384766,1.484375,1.4814453,1.4638672,1.4570312,1.4550781,1.4726562,1.4794922,1.4550781,1.1328125,1.1279297,1.1142578,1.1113281,1.1074219,1.1083984,1.1083984,1.109375,1.1103516,1.109375,1.1103516,1.109375,1.109375,1.109375,1.1103516,1.109375,1.109375,1.109375,1.109375,1.109375,1.109375,1.109375,1.109375,1.109375,1.109375,1.1103516,1.1103516,1.1103516,1.109375,1.1103516,1.1103516,1.1103516,1.1103516,1.1103516,1.1103516,1.1103516,1.109375,1.1103516,1.109375,1.109375,1.1083984,1.1083984,1.1083984,1.109375,1.109375,1.1083984,1.109375,1.109375,1.1083984,1.1083984,1.1074219,1.1083984,1.1083984,1.1083984,1.109375,1.109375,1.109375,1.109375,1.1083984,1.1074219,1.1083984,1.1064453,1.1044922,1.1015625,1.0996094,1.0957031,1.0917969,1.0859375,1.0810547,1.0751953,1.0693359,1.0654297,1.0595703,1.0566406,1.0537109,1.0527344,1.0507812,1.0507812,1.0507812,1.0498047,1.0498047,1.0498047,1.0498047,1.0498047,1.0498047,1.0488281,1.0478516,1.0478516,1.0478516,1.0478516,1.046875,1.0458984,1.0458984,1.0458984,1.0458984,1.0449219,1.0449219,1.0439453,1.0439453,1.0439453,1.0429688,1.0419922,1.0419922,1.0419922,1.0410156,1.0410156,1.0410156,1.0410156,1.0400391,1.0400391,1.0390625,1.0380859,1.0371094,1.03125,1.0263672,1.0214844,1.0166016,1.0136719,1.0107422,1.0087891,1.0078125,1.0087891,1.0146484,1.0185547,1.0195312,1.0185547,1.0175781,1.0175781
1.4511719,1.4580078,1.4648438,1.4667969,1.4833984,1.4853516,1.5039062,1.5273438,1.5029297,1.3945312,1.2255859,1.2119141,1.2021484,1.1962891,1.1943359,1.1894531,1.1884766,1.1875,1.1894531,1.1894531,1.1855469,1.1806641,1.1650391,1.1542969,1.1445312,1.1367188,1.1308594,1.1289062,1.1269531,1.125,1.125,1.1240234,1.1240234,1.1230469,1.1230469,1.1220703,1.1220703,1.1220703,1.1220703,1.1210938,1.1201172,1.1201172,1.1191406,1.1191406,1.1181641,1.1171875,1.1162109,1.1162109,1.1152344,1.1152344,1.1142578,1.1142578,1.1132812,1.1132812,1.1142578,1.1132812,1.1132812,1.1123047,1.1123047,1.1123047,1.1123047,1.1113281,1.1113281,1.1103516,1.109375,1.1083984,1.1074219,1.1064453,1.1064453,1.1054688,1.1103516,1.1142578,1.125,1.1376953,1.1503906,1.1582031,1.1640625,1.1669922,1.1669922,1.1679688,1.1679688,1.1679688,1.1679688,1.1660156,1.1669922,1.1669922,1.1660156,1.1660156,1.1640625,1.1630859,1.1621094,1.1591797,1.15625,1.1523438,1.1484375,1.1455078,1.1425781,1.1396484,1.1386719,1.1386719,1.1376953,1.1386719,1.1376953,1.1357422,1.1347656,1.1347656,1.1416016,1.1455078,1.1523438,1.1621094,1.1708984,1.1796875,1.1914062,1.2451172,1.2792969,1.3496094,1.3974609,1.4453125,1.4667969,1.4921875,1.4824219,1.4453125,1.4482422,1.4375,1.4511719,1.4648438,1.4501953,1.3662109,1.1259766,1.1162109,1.1103516,1.1074219,1.1074219,1.1064453,1.1083984,1.109375,1.1083984,1.109375,1.109375,1.109375,1.109375,1.109375,1.109375,1.1103516,1.109375,1.109375,1.109375,1.109375,1.109375,1.109375,1.109375,1.109375,1.109375,1.109375,1.109375,1.109375,1.109375,1.1103516,1.109375,1.109375,1.109375,1.109375,1.1103516,1.109375,1.1103516,1.109375,1.1083984,1.1083984,1.1083984,1.1083984,1.109375,1.109375,1.1083984,1.109375,1.109375,1.1083984,1.109375,1.109375,1.1083984,1.1083984,1.1083984,1.1083984,1.1083984,1.1074219,1.1074219,1.1064453,1.1054688,1.1044922,1.1044922,1.1025391,1.1015625,1.1005859,1.0966797,1.09375,1.0878906,1.0820312,1.0761719,1.0703125,1.0654297,1.0605469,1.0566406,1.0537109,1.0527344,1.0517578,1.0507812,1.0507812,1.0498047,1.0498047,1.0498047,1.0498047,1.0498047,1.0498047,1.0488281,1.0488281,1.0488281,1.0478516,1.0478516,1.046875,1.046875,1.046875,1.0458984,1.0458984,1.0449219,1.0449219,1.0449219,1.0449219,1.0439453,1.0439453,1.0429688,1.0429688,1.0419922,1.0419922,1.0410156,1.0410156,1.0410156,1.0410156,1.0410156,1.0400391,1.0390625,1.0371094,1.0322266,1.0273438,1.0224609,1.0175781,1.0146484,1.0117188,1.0107422,1.0087891,1.0097656,1.015625,1.0185547,1.0205078,1.0175781,1.0166016,1.0166016
1.4482422,1.4472656,1.4599609,1.4628906,1.4697266,1.5419922,1.5429688,1.4931641,1.2333984,1.2138672,1.2041016,1.1982422,1.1962891,1.1933594,1.1914062,1.1875,1.1865234,1.1855469,1.1855469,1.1855469,1.1835938,1.1796875,1.171875,1.1630859,1.1503906,1.140625,1.1328125,1.1298828,1.1279297,1.1259766,1.125,1.1230469,1.1230469,1.1230469,1.1220703,1.1220703,1.1210938,1.1210938,1.1210938,1.1210938,1.1201172,1.1201172,1.1191406,1.1181641,1.1171875,1.1171875,1.1162109,1.1162109,1.1162109,1.1142578,1.1142578,1.1132812,1.1132812,1.1132812,1.1132812,1.1132812,1.1132812,1.1123047,1.1123047,1.1123047,1.1113281,1.1113281,1.1103516,1.1103516,1.1083984,1.1083984,1.1064453,1.1054688,1.1064453,1.1074219,1.1113281,1.1162109,1.1279297,1.1396484,1.1513672,1.1601562,1.1650391,1.1660156,1.1660156,1.1669922,1.1679688,1.1660156,1.1660156,1.1650391,1.1650391,1.1650391,1.1650391,1.1640625,1.1650391,1.1650391,1.1640625,1.1630859,1.1630859,1.1611328,1.1582031,1.1552734,1.1523438,1.1484375,1.1474609,1.1455078,1.1455078,1.1455078,1.1455078,1.1435547,1.1445312,1.1523438,1.1787109,1.1962891,1.2060547,1.203125,1.2089844,1.2177734,1.2333984,1.2744141,1.2929688,1.3398438,1.4003906,1.4814453,1.4980469,1.5146484,1.4892578,1.4707031,1.4638672,1.4697266,1.4765625,1.4794922,1.453125,1.3945312,1.3085938,1.1240234,1.1113281,1.1064453,1.1064453,1.1054688,1.1074219,1.109375,1.109375,1.1083984,1.1083984,1.1083984,1.1083984,1.1083984,1.1083984,1.109375,1.109375,1.109375,1.109375,1.1083984,1.109375,1.109375,1.109375,1.109375,1.109375,1.109375,1.109375,1.1083984,1.109375,1.109375,1.1083984,1.109375,1.109375,1.109375,1.109375,1.109375,1.109375,1.109375,1.1083984,1.1083984,1.1074219,1.1074219,1.1074219,1.1074219,1.1074219,1.1083984,1.1074219,1.1083984,1.1083984,1.1083984,1.1083984,1.1083984,1.1083984,1.1083984,1.1083984,1.1074219,1.1074219,1.1074219,1.1064453,1.1044922,1.1044922,1.1044922,1.1035156,1.1025391,1.0986328,1.0947266,1.0898438,1.0830078,1.0771484,1.0712891,1.0654297,1.0615234,1.0576172,1.0546875,1.0527344,1.0517578,1.0507812,1.0507812,1.0498047,1.0498047,1.0498047,1.0498047,1.0498047,1.0498047,1.0488281,1.0478516,1.0478516,1.0478516,1.0478516,1.0478516,1.046875,1.046875,1.046875,1.0458984,1.0458984,1.0449219,1.0449219,1.0449219,1.0449219,1.0449219,1.0439453,1.0429688,1.0429688,1.0419922,1.0419922,1.0410156,1.0410156,1.0410156,1.0410156,1.0400391,1.0390625,1.0380859,1.0332031,1.0283203,1.0224609,1.0185547,1.015625,1.0117188,1.0117188,1.0126953,1.0146484,1.0195312,1.0205078,1.0205078,1.0195312,1.0175781,1.0166016
1.4482422,1.4423828,1.4589844,1.4648438,1.5380859,1.5107422,1.4833984,1.2207031,1.2119141,1.2011719,1.1982422,1.1933594,1.1933594,1.1904297,1.1884766,1.1855469,1.1845703,1.1835938,1.1845703,1.1835938,1.1826172,1.1806641,1.1767578,1.1708984,1.1611328,1.1494141,1.1386719,1.1318359,1.1298828,1.1269531,1.125,1.1240234,1.1230469,1.1220703,1.1220703,1.1210938,1.1210938,1.1201172,1.1201172,1.1201172,1.1191406,1.1191406,1.1181641,1.1171875,1.1171875,1.1162109,1.1162109,1.1152344,1.1152344,1.1142578,1.1142578,1.1132812,1.1132812,1.1123047,1.1123047,1.1123047,1.1123047,1.1123047,1.1123047,1.1123047,1.1113281,1.1113281,1.1103516,1.109375,1.1083984,1.1074219,1.1064453,1.1054688,1.1064453,1.1083984,1.1132812,1.1181641,1.1289062,1.1416016,1.1523438,1.1601562,1.1630859,1.1640625,1.1640625,1.1650391,1.1650391,1.1640625,1.1630859,1.1630859,1.1640625,1.1640625,1.1640625,1.1640625,1.1640625,1.1640625,1.1640625,1.1650391,1.1640625,1.1630859,1.1621094,1.1611328,1.1601562,1.1572266,1.1552734,1.1542969,1.1542969,1.1542969,1.1542969,1.1533203,1.1572266,1.1621094,1.1884766,1.2099609,1.21875,1.2246094,1.2314453,1.2412109,1.25,1.265625,1.2802734,1.3125,1.3925781,1.4501953,1.4892578,1.5029297,1.4931641,1.4697266,1.4726562,1.4599609,1.4599609,1.4785156,1.4423828,1.3818359,1.3203125,1.1357422,1.1191406,1.1064453,1.1074219,1.1064453,1.1064453,1.1064453,1.1074219,1.1074219,1.1074219,1.1074219,1.1074219,1.1074219,1.1083984,1.1083984,1.1083984,1.109375,1.109375,1.109375,1.109375,1.109375,1.109375,1.109375,1.109375,1.1083984,1.1083984,1.1083984,1.1083984,1.109375,1.1083984,1.1083984,1.109375,1.109375,1.109375,1.1083984,1.109375,1.1083984,1.1083984,1.1083984,1.1074219,1.1064453,1.1074219,1.1074219,1.1074219,1.1074219,1.1074219,1.1074219,1.1074219,1.1074219,1.1074219,1.1074219,1.1074219,1.1074219,1.1074219,1.1074219,1.1074219,1.1074219,1.1054688,1.1054688,1.1044922,1.1035156,1.1025391,1.1005859,1.0976562,1.0947266,1.0898438,1.0830078,1.0771484,1.0722656,1.0664062,1.0625,1.0576172,1.0546875,1.0527344,1.0517578,1.0507812,1.0507812,1.0498047,1.0507812,1.0498047,1.0507812,1.0498047,1.0498047,1.0488281,1.0488281,1.0478516,1.0478516,1.0478516,1.0478516,1.046875,1.0478516,1.046875,1.046875,1.0458984,1.0458984,1.0449219,1.0449219,1.0449219,1.0449219,1.0449219,1.0439453,1.0439453,1.0429688,1.0429688,1.0419922,1.0419922,1.0410156,1.0419922,1.0410156,1.0400391,1.0390625,1.0341797,1.0302734,1.0234375,1.0185547,1.0166016,1.0126953,1.0126953,1.0146484,1.0166016,1.0214844,1.0195312,1.0195312,1.0195312,1.015625,1.0166016
1.4414062,1.4443359,1.4560547,1.5126953,1.4707031,1.2421875,1.2207031,1.2050781,1.2001953,1.1953125,1.1923828,1.1884766,1.1884766,1.1875,1.1865234,1.1845703,1.1826172,1.1816406,1.1826172,1.1816406,1.1806641,1.1806641,1.1787109,1.1757812,1.171875,1.1591797,1.1445312,1.1347656,1.1308594,1.1279297,1.1259766,1.1240234,1.1230469,1.1220703,1.1210938,1.1201172,1.1201172,1.1201172,1.1201172,1.1191406,1.1191406,1.1181641,1.1181641,1.1171875,1.1162109,1.1162109,1.1152344,1.1152344,1.1152344,1.1142578,1.1132812,1.1132812,1.1132812,1.1123047,1.1123047,1.1123047,1.1123047,1.1123047,1.1123047,1.1123047,1.1113281,1.1103516,1.109375,1.109375,1.1083984,1.1074219,1.1074219,1.1054688,1.1074219,1.109375,1.1142578,1.1201172,1.1318359,1.1445312,1.1542969,1.1621094,1.1640625,1.1630859,1.1621094,1.1621094,1.1621094,1.1621094,1.1611328,1.1611328,1.1621094,1.1621094,1.1621094,1.1621094,1.1630859,1.1640625,1.1640625,1.1640625,1.1640625,1.1640625,1.1640625,1.1630859,1.1630859,1.1621094,1.1601562,1.1601562,1.1601562,1.1601562,1.1611328,1.1601562,1.1669922,1.1748047,1.1962891,1.2128906,1.2236328,1.2324219,1.2392578,1.2509766,1.2587891,1.2675781,1.2773438,1.2871094,1.2929688,1.3017578,1.3300781,1.3525391,1.4257812,1.4296875,1.4375,1.4316406,1.3935547,1.4277344,1.4013672,1.3115234,1.3164062,1.2324219,1.1269531,1.109375,1.1064453,1.1074219,1.1064453,1.1064453,1.1064453,1.1064453,1.1064453,1.1064453,1.1064453,1.1064453,1.1074219,1.1074219,1.1083984,1.1083984,1.1083984,1.109375,1.109375,1.109375,1.109375,1.109375,1.109375,1.1083984,1.1083984,1.1083984,1.1083984,1.1083984,1.1083984,1.1083984,1.1083984,1.1083984,1.1083984,1.1083984,1.1083984,1.1074219,1.1074219,1.1074219,1.1074219,1.1064453,1.1064453,1.1064453,1.1064453,1.1064453,1.1064453,1.1064453,1.1064453,1.1054688,1.1064453,1.1054688,1.1064453,1.1064453,1.1064453,1.1064453,1.1064453,1.1064453,1.1054688,1.1044922,1.1025391,1.1015625,1.1005859,1.0986328,1.0966797,1.0947266,1.0908203,1.0849609,1.0791016,1.0732422,1.0664062,1.0625,1.0585938,1.0546875,1.0527344,1.0517578,1.0517578,1.0507812,1.0498047,1.0507812,1.0498047,1.0498047,1.0498047,1.0498047,1.0488281,1.0488281,1.0488281,1.0488281,1.0478516,1.0478516,1.046875,1.0478516,1.0478516,1.046875,1.046875,1.046875,1.0458984,1.0458984,1.0458984,1.0449219,1.0449219,1.0449219,1.0449219,1.0439453,1.0429688,1.0429688,1.0429688,1.0410156,1.0419922,1.0419922,1.0419922,1.0400391,1.0361328,1.03125,1.0253906,1.0195312,1.0175781,1.0146484,1.0136719,1.015625,1.0175781,1.0195312,1.0185547,1.0185547,1.0175781,1.015625,1.015625
1.4267578,1.4316406,1.4726562,1.4853516,1.2392578,1.2148438,1.2060547,1.1962891,1.1943359,1.1904297,1.1894531,1.1865234,1.1855469,1.1845703,1.1835938,1.1816406,1.1806641,1.1796875,1.1796875,1.1796875,1.1787109,1.1787109,1.1777344,1.1777344,1.1748047,1.1660156,1.15625,1.1416016,1.1357422,1.1289062,1.1269531,1.125,1.1230469,1.1230469,1.1220703,1.1201172,1.1191406,1.1201172,1.1201172,1.1191406,1.1181641,1.1181641,1.1181641,1.1171875,1.1162109,1.1162109,1.1152344,1.1152344,1.1142578,1.1132812,1.1132812,1.1123047,1.1123047,1.1123047,1.1123047,1.1123047,1.1123047,1.1123047,1.1113281,1.1113281,1.1113281,1.1103516,1.109375,1.1083984,1.1083984,1.1074219,1.1074219,1.1054688,1.1083984,1.1113281,1.1162109,1.1230469,1.1347656,1.1464844,1.15625,1.1621094,1.1621094,1.1621094,1.1621094,1.1621094,1.1621094,1.1611328,1.1611328,1.1611328,1.1601562,1.1611328,1.1611328,1.1611328,1.1611328,1.1621094,1.1621094,1.1621094,1.1630859,1.1621094,1.1630859,1.1630859,1.1630859,1.1630859,1.1621094,1.1630859,1.1630859,1.1630859,1.1650391,1.1650391,1.1699219,1.1777344,1.1933594,1.2050781,1.2167969,1.2265625,1.2421875,1.2705078,1.2724609,1.2763672,1.2832031,1.2880859,1.2939453,1.2988281,1.2988281,1.296875,1.2919922,1.2841797,1.2861328,1.2900391,1.2949219,1.2978516,1.2978516,1.3037109,1.3027344,1.2558594,1.1425781,1.1220703,1.1152344,1.1083984,1.1074219,1.1074219,1.1064453,1.1064453,1.1064453,1.1054688,1.1054688,1.1054688,1.1064453,1.1074219,1.1074219,1.1083984,1.1074219,1.1083984,1.1083984,1.1083984,1.1083984,1.1083984,1.1083984,1.1083984,1.1074219,1.1083984,1.1083984,1.1074219,1.1083984,1.1074219,1.1083984,1.1083984,1.1083984,1.1083984,1.1074219,1.1074219,1.1074219,1.1064453,1.1064453,1.1054688,1.1054688,1.1054688,1.1054688,1.1054688,1.1054688,1.1054688,1.1054688,1.1054688,1.1054688,1.1054688,1.1054688,1.1064453,1.1054688,1.1054688,1.1054688,1.1044922,1.1044922,1.1035156,1.1035156,1.1025391,1.1015625,1.0996094,1.0976562,1.0957031,1.0917969,1.0869141,1.0810547,1.0751953,1.0683594,1.0625,1.0585938,1.0556641,1.0537109,1.0517578,1.0517578,1.0507812,1.0507812,1.0507812,1.0498047,1.0498047,1.0498047,1.0498047,1.0498047,1.0488281,1.0498047,1.0488281,1.0488281,1.0478516,1.0478516,1.0478516,1.0478516,1.0478516,1.046875,1.046875,1.046875,1.046875,1.046875,1.0458984,1.0458984,1.0458984,1.0449219,1.0449219,1.0439453,1.0439453,1.0429688,1.0429688,1.0429688,1.0429688,1.0429688,1.0410156,1.0371094,1.0351562,1.0273438,1.0205078,1.0175781,1.0136719,1.0117188,1.0136719,1.0146484,1.0166016,1.015625,1.0175781,1.0175781,1.0166016,1.015625
1.4033203,1.4199219,1.4306641,1.2197266,1.2128906,1.2001953,1.1972656,1.1923828,1.1904297,1.1875,1.1855469,1.1835938,1.1826172,1.1816406,1.1816406,1.1796875,1.1787109,1.1787109,1.1787109,1.1777344,1.1767578,1.1777344,1.1777344,1.1767578,1.1748047,1.1689453,1.1640625,1.1513672,1.140625,1.1318359,1.1279297,1.1259766,1.125,1.1230469,1.1220703,1.1201172,1.1191406,1.1191406,1.1191406,1.1181641,1.1181641,1.1171875,1.1171875,1.1162109,1.1152344,1.1152344,1.1142578,1.1142578,1.1132812,1.1132812,1.1123047,1.1123047,1.1123047,1.1123047,1.1113281,1.1123047,1.1123047,1.1113281,1.1113281,1.1113281,1.1103516,1.109375,1.1083984,1.1083984,1.1074219,1.1074219,1.1074219,1.1054688,1.1083984,1.1113281,1.1181641,1.1259766,1.1386719,1.1494141,1.1572266,1.1611328,1.1611328,1.1601562,1.1601562,1.1611328,1.1611328,1.1601562,1.1601562,1.1591797,1.1591797,1.1601562,1.1601562,1.1601562,1.1601562,1.1601562,1.1611328,1.1611328,1.1621094,1.1621094,1.1630859,1.1640625,1.1630859,1.1640625,1.1640625,1.1650391,1.1650391,1.1650391,1.1660156,1.1669922,1.1708984,1.1787109,1.1884766,1.1982422,1.2070312,1.2197266,1.2539062,1.28125,1.2880859,1.2978516,1.2900391,1.2910156,1.2919922,1.2949219,1.296875,1.2929688,1.2871094,1.2792969,1.28125,1.2841797,1.2792969,1.2792969,1.2958984,1.2802734,1.2851562,1.2587891,1.1845703,1.1376953,1.1201172,1.1123047,1.1083984,1.1064453,1.1074219,1.1064453,1.1054688,1.1044922,1.1054688,1.1054688,1.1064453,1.1054688,1.1064453,1.1074219,1.1074219,1.1074219,1.1074219,1.1083984,1.1074219,1.1083984,1.1074219,1.1074219,1.1074219,1.1074219,1.1083984,1.1083984,1.1074219,1.1074219,1.1083984,1.1083984,1.1074219,1.1083984,1.1074219,1.1074219,1.1064453,1.1064453,1.1064453,1.1054688,1.1054688,1.1044922,1.1044922,1.1044922,1.1044922,1.1054688,1.1054688,1.1044922,1.1054688,1.1044922,1.1044922,1.1044922,1.1035156,1.1035156,1.1035156,1.1035156,1.1025391,1.1025391,1.1025391,1.1025391,1.1015625,1.0996094,1.0976562,1.0957031,1.0927734,1.0888672,1.0820312,1.0771484,1.0703125,1.0634766,1.0595703,1.0566406,1.0537109,1.0517578,1.0517578,1.0517578,1.0507812,1.0507812,1.0498047,1.0507812,1.0498047,1.0498047,1.0498047,1.0498047,1.0498047,1.0498047,1.0488281,1.0488281,1.0478516,1.0488281,1.0478516,1.0478516,1.0478516,1.046875,1.046875,1.046875,1.046875,1.046875,1.046875,1.0458984,1.0458984,1.0458984,1.0449219,1.0449219,1.0439453,1.0439453,1.0439453,1.0429688,1.0439453,1.0419922,1.0400391,1.0380859,1.0302734,1.0224609,1.0175781,1.0146484,1.0126953,1.0117188,1.0126953,1.0136719,1.0126953,1.0146484,1.015625,1.0166016,1.0126953
1.3564453,1.4130859,1.2294922,1.2099609,1.2021484,1.1943359,1.1933594,1.1875,1.1875,1.1845703,1.1835938,1.1816406,1.1806641,1.1806641,1.1796875,1.1777344,1.1777344,1.1767578,1.1767578,1.1767578,1.1748047,1.1757812,1.1748047,1.1757812,1.1738281,1.1708984,1.1660156,1.1572266,1.1484375,1.1376953,1.1298828,1.1269531,1.125,1.1230469,1.1220703,1.1201172,1.1191406,1.1191406,1.1181641,1.1181641,1.1171875,1.1162109,1.1162109,1.1162109,1.1152344,1.1142578,1.1142578,1.1142578,1.1132812,1.1123047,1.1123047,1.1113281,1.1113281,1.1113281,1.1123047,1.1113281,1.1113281,1.1113281,1.1113281,1.1103516,1.109375,1.109375,1.1083984,1.1074219,1.1064453,1.1064453,1.1064453,1.1044922,1.1083984,1.1113281,1.1181641,1.1259766,1.1396484,1.1513672,1.1591797,1.1621094,1.1601562,1.1601562,1.1601562,1.1611328,1.1601562,1.1601562,1.1591797,1.1591797,1.1591797,1.1591797,1.1601562,1.1591797,1.1601562,1.1601562,1.1601562,1.1611328,1.1621094,1.1621094,1.1630859,1.1640625,1.1640625,1.1650391,1.1640625,1.1640625,1.1650391,1.1650391,1.1660156,1.1669922,1.1699219,1.1757812,1.1826172,1.1904297,1.2011719,1.2128906,1.2451172,1.2890625,1.3085938,1.3164062,1.3203125,1.3222656,1.3291016,1.3378906,1.3105469,1.3037109,1.2988281,1.2919922,1.2871094,1.2792969,1.2841797,1.2832031,1.2792969,1.2871094,1.2695312,1.2548828,1.1875,1.1337891,1.1201172,1.1152344,1.109375,1.1064453,1.1074219,1.1064453,1.1064453,1.1054688,1.1044922,1.1044922,1.1044922,1.1054688,1.1054688,1.1064453,1.1064453,1.1064453,1.1074219,1.1074219,1.1074219,1.1074219,1.1074219,1.1074219,1.1074219,1.1074219,1.1083984,1.1083984,1.1083984,1.1074219,1.1074219,1.1074219,1.1074219,1.1074219,1.1064453,1.1074219,1.1054688,1.1054688,1.1054688,1.1054688,1.1054688,1.1054688,1.1044922,1.1044922,1.1044922,1.1044922,1.1044922,1.1044922,1.1044922,1.1035156,1.1035156,1.1035156,1.1035156,1.1035156,1.1025391,1.1025391,1.1025391,1.1015625,1.1015625,1.1015625,1.1005859,1.0986328,1.0976562,1.0957031,1.09375,1.0898438,1.0839844,1.0791016,1.0722656,1.0654297,1.0605469,1.0566406,1.0546875,1.0527344,1.0527344,1.0517578,1.0507812,1.0507812,1.0507812,1.0507812,1.0507812,1.0498047,1.0507812,1.0507812,1.0498047,1.0498047,1.0498047,1.0488281,1.0488281,1.0488281,1.0488281,1.0488281,1.0478516,1.0478516,1.0478516,1.0478516,1.0478516,1.046875,1.046875,1.046875,1.046875,1.046875,1.0458984,1.0458984,1.0449219,1.0439453,1.0439453,1.0449219,1.0458984,1.0449219,1.0419922,1.0390625,1.03125,1.0244141,1.0195312,1.015625,1.0136719,1.0117188,1.0107422,1.0107422,1.0097656,1.0117188,1.0117188,1.0087891,1.0097656
1.3154297,1.2314453,1.2216797,1.1982422,1.1933594,1.1894531,1.1884766,1.1845703,1.1845703,1.1826172,1.1816406,1.1796875,1.1787109,1.1777344,1.1777344,1.1767578,1.1757812,1.1757812,1.1748047,1.1748047,1.1738281,1.1748047,1.1738281,1.1738281,1.1728516,1.1699219,1.1679688,1.1611328,1.1542969,1.1425781,1.1337891,1.1279297,1.1259766,1.1240234,1.1220703,1.1201172,1.1191406,1.1181641,1.1171875,1.1171875,1.1162109,1.1162109,1.1162109,1.1152344,1.1142578,1.1142578,1.1142578,1.1132812,1.1132812,1.1123047,1.1113281,1.1113281,1.1113281,1.1113281,1.1113281,1.1113281,1.1103516,1.1103516,1.1103516,1.109375,1.1083984,1.109375,1.1074219,1.1074219,1.1054688,1.1054688,1.1064453,1.1044922,1.1083984,1.1113281,1.1191406,1.1259766,1.1435547,1.1542969,1.1611328,1.1621094,1.1611328,1.1601562,1.1601562,1.1601562,1.1611328,1.1601562,1.1601562,1.1591797,1.1591797,1.1582031,1.1591797,1.1582031,1.1591797,1.1591797,1.1591797,1.1591797,1.1601562,1.1611328,1.1621094,1.1621094,1.1630859,1.1640625,1.1640625,1.1630859,1.1640625,1.1650391,1.1660156,1.1679688,1.1689453,1.1738281,1.1777344,1.1855469,1.1972656,1.2070312,1.2373047,1.3007812,1.3261719,1.3251953,1.3300781,1.3369141,1.3417969,1.3603516,1.3613281,1.3652344,1.3613281,1.3378906,1.2900391,1.2851562,1.2900391,1.2958984,1.2705078,1.2587891,1.2724609,1.2490234,1.1767578,1.1337891,1.1259766,1.1181641,1.1123047,1.1083984,1.1074219,1.1074219,1.1054688,1.1044922,1.1044922,1.1035156,1.1044922,1.1054688,1.1054688,1.1064453,1.1064453,1.1064453,1.1074219,1.1074219,1.1074219,1.1074219,1.1074219,1.1074219,1.1074219,1.1074219,1.1074219,1.1074219,1.1074219,1.1074219,1.1074219,1.1074219,1.1074219,1.1074219,1.1064453,1.1064453,1.1054688,1.1044922,1.1044922,1.1044922,1.1044922,1.1044922,1.1044922,1.1044922,1.1044922,1.1035156,1.1035156,1.1035156,1.1035156,1.1035156,1.1035156,1.1035156,1.1035156,1.1025391,1.1025391,1.1025391,1.1015625,1.1005859,1.1005859,1.1015625,1.1005859,1.0986328,1.0976562,1.0966797,1.0947266,1.0917969,1.0869141,1.0820312,1.0742188,1.0673828,1.0615234,1.0576172,1.0556641,1.0537109,1.0537109,1.0527344,1.0517578,1.0517578,1.0507812,1.0507812,1.0507812,1.0507812,1.0507812,1.0507812,1.0507812,1.0507812,1.0507812,1.0498047,1.0498047,1.0498047,1.0498047,1.0488281,1.0478516,1.0478516,1.0478516,1.0478516,1.0478516,1.0478516,1.046875,1.046875,1.046875,1.046875,1.046875,1.046875,1.0458984,1.0449219,1.0458984,1.0458984,1.0478516,1.046875,1.0429688,1.0371094,1.0332031,1.0263672,1.0205078,1.0166016,1.0136719,1.0117188,1.0097656,1.0097656,1.0078125,1.0087891,1.0078125,1.0087891,1.0078125
1.2636719,1.2119141,1.2050781,1.1923828,1.1923828,1.1865234,1.1865234,1.1816406,1.1806641,1.1796875,1.1787109,1.1777344,1.1767578,1.1757812,1.1757812,1.1748047,1.1738281,1.1728516,1.1728516,1.1728516,1.171875,1.1728516,1.171875,1.171875,1.1708984,1.1689453,1.1669922,1.1630859,1.1572266,1.1494141,1.1416016,1.1328125,1.1289062,1.125,1.1230469,1.1201172,1.1191406,1.1181641,1.1181641,1.1162109,1.1152344,1.1162109,1.1152344,1.1152344,1.1142578,1.1142578,1.1132812,1.1132812,1.1123047,1.1123047,1.1113281,1.1113281,1.1113281,1.1103516,1.1103516,1.1103516,1.109375,1.109375,1.109375,1.1083984,1.1074219,1.1074219,1.1064453,1.1064453,1.1054688,1.1054688,1.1064453,1.1044922,1.1083984,1.1113281,1.1191406,1.1308594,1.1464844,1.1582031,1.1611328,1.1611328,1.1591797,1.1591797,1.1591797,1.1601562,1.1601562,1.1601562,1.1591797,1.1582031,1.1582031,1.1582031,1.1582031,1.1582031,1.1582031,1.1582031,1.1582031,1.1591797,1.1601562,1.1601562,1.1611328,1.1621094,1.1630859,1.1630859,1.1630859,1.1630859,1.1640625,1.1650391,1.1660156,1.1660156,1.1669922,1.1708984,1.1757812,1.1826172,1.1943359,1.203125,1.2275391,1.3095703,1.3330078,1.3330078,1.3378906,1.34375,1.3496094,1.3574219,1.3613281,1.3652344,1.3701172,1.3603516,1.3447266,1.3046875,1.296875,1.2763672,1.2626953,1.2773438,1.2460938,1.2158203,1.1777344,1.1259766,1.1240234,1.1201172,1.1152344,1.1113281,1.109375,1.1074219,1.1064453,1.1054688,1.1054688,1.1054688,1.1054688,1.1054688,1.1054688,1.1064453,1.1064453,1.1064453,1.1064453,1.1074219,1.1074219,1.1074219,1.1074219,1.1064453,1.1074219,1.1074219,1.1074219,1.1074219,1.1074219,1.1074219,1.1074219,1.1074219,1.1064453,1.1064453,1.1064453,1.1054688,1.1054688,1.1044922,1.1044922,1.1044922,1.1044922,1.1044922,1.1035156,1.1035156,1.1035156,1.1035156,1.1025391,1.1025391,1.1025391,1.1025391,1.1025391,1.1025391,1.1025391,1.1025391,1.1015625,1.1015625,1.1015625,1.1005859,1.1005859,1.1005859,1.1005859,1.0996094,1.0986328,1.0976562,1.0957031,1.0927734,1.0878906,1.0830078,1.0761719,1.0693359,1.0625,1.0585938,1.0566406,1.0546875,1.0537109,1.0527344,1.0527344,1.0517578,1.0517578,1.0517578,1.0517578,1.0517578,1.0517578,1.0517578,1.0517578,1.0517578,1.0507812,1.0507812,1.0498047,1.0507812,1.0498047,1.0498047,1.0488281,1.0488281,1.0478516,1.0488281,1.0488281,1.0488281,1.0478516,1.0478516,1.0478516,1.0478516,1.0478516,1.0478516,1.046875,1.0458984,1.046875,1.0488281,1.0498047,1.0488281,1.0449219,1.0400391,1.0361328,1.0283203,1.0234375,1.0185547,1.015625,1.0136719,1.0097656,1.0078125,1.0068359,1.0068359,1.0048828,1.0058594,1.0019531
1.2158203,1.1962891,1.1953125,1.1884766,1.1884766,1.1845703,1.1835938,1.1796875,1.1787109,1.1777344,1.1767578,1.1757812,1.1757812,1.1748047,1.1738281,1.1728516,1.171875,1.171875,1.1708984,1.1708984,1.1699219,1.1699219,1.1699219,1.1689453,1.1679688,1.1679688,1.1660156,1.1640625,1.1601562,1.1552734,1.1474609,1.1416016,1.1318359,1.1269531,1.1240234,1.1220703,1.1201172,1.1191406,1.1181641,1.1162109,1.1152344,1.1152344,1.1152344,1.1142578,1.1142578,1.1132812,1.1132812,1.1132812,1.1123047,1.1123047,1.1113281,1.1103516,1.1103516,1.1103516,1.1103516,1.1103516,1.109375,1.109375,1.1083984,1.1083984,1.1074219,1.1074219,1.1064453,1.1054688,1.1064453,1.1054688,1.1054688,1.1054688,1.1103516,1.1113281,1.1230469,1.140625,1.1533203,1.1611328,1.1611328,1.1601562,1.1591797,1.1591797,1.1591797,1.1591797,1.1591797,1.1591797,1.1582031,1.1582031,1.1582031,1.1582031,1.1582031,1.1582031,1.1582031,1.1582031,1.1582031,1.1582031,1.1591797,1.1601562,1.1601562,1.1611328,1.1621094,1.1621094,1.1621094,1.1630859,1.1630859,1.1640625,1.1640625,1.1650391,1.1669922,1.1689453,1.1728516,1.1787109,1.1904297,1.1982422,1.2197266,1.3173828,1.3398438,1.3408203,1.3447266,1.3525391,1.359375,1.3642578,1.3701172,1.3681641,1.3720703,1.3769531,1.4082031,1.4423828,1.3408203,1.2832031,1.2685547,1.1503906,1.1376953,1.1337891,1.1298828,1.1230469,1.1230469,1.1210938,1.1171875,1.1152344,1.1113281,1.1103516,1.1083984,1.1074219,1.1074219,1.1064453,1.1064453,1.1054688,1.1054688,1.1064453,1.1064453,1.1064453,1.1064453,1.1074219,1.1064453,1.1074219,1.1074219,1.1074219,1.1083984,1.1074219,1.1074219,1.1083984,1.1083984,1.1074219,1.1074219,1.1074219,1.1074219,1.1064453,1.1064453,1.1054688,1.1044922,1.1044922,1.1035156,1.1035156,1.1035156,1.1035156,1.1035156,1.1035156,1.1035156,1.1035156,1.1025391,1.1025391,1.1015625,1.1015625,1.1015625,1.1025391,1.1015625,1.1015625,1.1015625,1.1015625,1.1015625,1.1005859,1.0996094,1.0996094,1.0996094,1.0996094,1.0976562,1.0966797,1.0957031,1.0927734,1.0888672,1.0839844,1.078125,1.0722656,1.0644531,1.0605469,1.0576172,1.0556641,1.0556641,1.0537109,1.0537109,1.0527344,1.0527344,1.0527344,1.0527344,1.0527344,1.0527344,1.0527344,1.0527344,1.0517578,1.0517578,1.0507812,1.0507812,1.0507812,1.0507812,1.0507812,1.0498047,1.0498047,1.0488281,1.0488281,1.0488281,1.0488281,1.0488281,1.0488281,1.0488281,1.0488281,1.0488281,1.0488281,1.0488281,1.0478516,1.0498047,1.0527344,1.0527344,1.0517578,1.0478516,1.0439453,1.0390625,1.0351562,1.0263672,1.0234375,1.0175781,1.0146484,1.0107422,1.0078125,1.0058594,1.0048828,1.0039062,1.0039062,1.0019531
1.2011719,1.1914062,1.1914062,1.1855469,1.1855469,1.1826172,1.1816406,1.1787109,1.1767578,1.1757812,1.1748047,1.1748047,1.1748047,1.1728516,1.1728516,1.171875,1.1708984,1.1699219,1.1699219,1.1689453,1.1679688,1.1689453,1.1679688,1.1679688,1.1669922,1.1660156,1.1650391,1.1640625,1.1621094,1.1582031,1.1552734,1.1494141,1.1396484,1.1308594,1.1259766,1.1220703,1.1210938,1.1181641,1.1171875,1.1162109,1.1142578,1.1142578,1.1142578,1.1132812,1.1132812,1.1132812,1.1132812,1.1132812,1.1113281,1.1113281,1.1103516,1.1103516,1.1103516,1.109375,1.109375,1.109375,1.109375,1.1083984,1.1074219,1.1074219,1.1074219,1.1064453,1.1054688,1.1054688,1.1054688,1.1044922,1.1054688,1.1064453,1.1132812,1.1162109,1.1289062,1.1455078,1.1552734,1.1611328,1.1601562,1.1582031,1.1582031,1.1582031,1.1582031,1.1591797,1.1582031,1.1582031,1.1582031,1.1582031,1.1582031,1.1582031,1.1582031,1.1572266,1.1572266,1.1582031,1.1572266,1.1582031,1.1582031,1.1591797,1.1591797,1.1601562,1.1601562,1.1611328,1.1611328,1.1611328,1.1621094,1.1621094,1.1640625,1.1650391,1.1660156,1.1679688,1.1699219,1.1767578,1.1865234,1.1923828,1.2128906,1.3203125,1.3486328,1.3466797,1.3535156,1.3681641,1.3691406,1.3710938,1.3701172,1.3681641,1.3798828,1.3818359,1.3828125,1.390625,1.3203125,1.2871094,1.2207031,1.1298828,1.125,1.125,1.125,1.1220703,1.1210938,1.1191406,1.1162109,1.1162109,1.1132812,1.1123047,1.1103516,1.109375,1.1083984,1.1083984,1.1074219,1.1064453,1.1064453,1.1074219,1.1074219,1.1074219,1.1074219,1.1074219,1.1074219,1.1074219,1.1074219,1.1074219,1.1083984,1.1083984,1.109375,1.1083984,1.1074219,1.1074219,1.1074219,1.1074219,1.1064453,1.1064453,1.1054688,1.1054688,1.1044922,1.1035156,1.1035156,1.1035156,1.1035156,1.1035156,1.1025391,1.1025391,1.1025391,1.1025391,1.1025391,1.1015625,1.1015625,1.1005859,1.1015625,1.1015625,1.1015625,1.1015625,1.1005859,1.1005859,1.1005859,1.0996094,1.0996094,1.0996094,1.0996094,1.0986328,1.0976562,1.0966797,1.0957031,1.09375,1.0898438,1.0849609,1.0800781,1.0742188,1.0664062,1.0605469,1.0585938,1.0566406,1.0566406,1.0556641,1.0546875,1.0537109,1.0527344,1.0527344,1.0527344,1.0537109,1.0527344,1.0527344,1.0527344,1.0527344,1.0527344,1.0517578,1.0517578,1.0517578,1.0517578,1.0517578,1.0507812,1.0498047,1.0507812,1.0498047,1.0498047,1.0498047,1.0498047,1.0498047,1.0507812,1.0507812,1.0507812,1.0498047,1.0507812,1.0517578,1.0546875,1.0566406,1.0585938,1.0585938,1.0556641,1.0498047,1.0458984,1.0390625,1.0371094,1.0283203,1.0224609,1.0166016,1.0117188,1.0078125,1.0058594,1.0039062,1.0039062,1.0029297,1.0039062
1.1972656,1.1894531,1.1884766,1.1816406,1.1816406,1.1806641,1.1796875,1.1767578,1.1748047,1.1738281,1.1738281,1.1728516,1.1728516,1.171875,1.1708984,1.1708984,1.1689453,1.1689453,1.1679688,1.1679688,1.1669922,1.1669922,1.1660156,1.1650391,1.1640625,1.1640625,1.1630859,1.1630859,1.1621094,1.1601562,1.1591797,1.1542969,1.1464844,1.1386719,1.1279297,1.1220703,1.1210938,1.1191406,1.1171875,1.1152344,1.1142578,1.1132812,1.1132812,1.1132812,1.1132812,1.1123047,1.1123047,1.1123047,1.1113281,1.1103516,1.1103516,1.1103516,1.109375,1.109375,1.1083984,1.1083984,1.1074219,1.1074219,1.1064453,1.1064453,1.1064453,1.1054688,1.1054688,1.1054688,1.1054688,1.1035156,1.1054688,1.1064453,1.1142578,1.125,1.1386719,1.1513672,1.1582031,1.1601562,1.1582031,1.15625,1.1572266,1.1572266,1.1582031,1.1582031,1.1582031,1.1572266,1.1572266,1.1572266,1.1572266,1.1582031,1.1582031,1.1572266,1.1572266,1.1572266,1.1572266,1.1582031,1.1582031,1.1591797,1.1591797,1.1591797,1.1591797,1.1591797,1.1591797,1.1611328,1.1611328,1.1621094,1.1630859,1.1640625,1.1650391,1.1669922,1.1689453,1.1738281,1.1826172,1.1884766,1.2041016,1.3203125,1.3710938,1.3955078,1.3710938,1.3867188,1.3837891,1.3808594,1.3740234,1.3779297,1.3828125,1.40625,1.375,1.3359375,1.1591797,1.1445312,1.1318359,1.1240234,1.1240234,1.1220703,1.1220703,1.1201172,1.1191406,1.1181641,1.1171875,1.1171875,1.1152344,1.1142578,1.1132812,1.1113281,1.1103516,1.109375,1.1083984,1.1074219,1.1074219,1.1074219,1.1074219,1.1074219,1.1074219,1.1074219,1.1074219,1.1074219,1.1083984,1.1083984,1.1083984,1.109375,1.109375,1.109375,1.1083984,1.1074219,1.1074219,1.1064453,1.1064453,1.1054688,1.1054688,1.1044922,1.1044922,1.1035156,1.1035156,1.1035156,1.1035156,1.1035156,1.1025391,1.1025391,1.1025391,1.1025391,1.1025391,1.1015625,1.1015625,1.1015625,1.1015625,1.1015625,1.1015625,1.1005859,1.0996094,1.0996094,1.1005859,1.0996094,1.0996094,1.0996094,1.0996094,1.0986328,1.0986328,1.0966797,1.0957031,1.09375,1.0908203,1.0869141,1.0820312,1.0761719,1.0683594,1.0615234,1.0595703,1.0576172,1.0566406,1.0566406,1.0556641,1.0546875,1.0537109,1.0537109,1.0537109,1.0546875,1.0537109,1.0537109,1.0537109,1.0537109,1.0537109,1.0527344,1.0527344,1.0527344,1.0527344,1.0517578,1.0517578,1.0517578,1.0507812,1.0507812,1.0507812,1.0507812,1.0507812,1.0507812,1.0517578,1.0517578,1.0517578,1.0507812,1.0537109,1.0566406,1.0595703,1.0615234,1.0634766,1.0654297,1.0625,1.0595703,1.0527344,1.0458984,1.0439453,1.0390625,1.0253906,1.0175781,1.0136719,1.0078125,1.0058594,1.0029297,1.0019531,1.0039062,1.0019531
1.1923828,1.1865234,1.1855469,1.1796875,1.1806641,1.1787109,1.1777344,1.1748047,1.1728516,1.171875,1.171875,1.1708984,1.1699219,1.1699219,1.1699219,1.1689453,1.1679688,1.1669922,1.1669922,1.1660156,1.1660156,1.1650391,1.1650391,1.1640625,1.1640625,1.1630859,1.1621094,1.1621094,1.1611328,1.1601562,1.1601562,1.1582031,1.1533203,1.1455078,1.1376953,1.1298828,1.125,1.1210938,1.1181641,1.1152344,1.1142578,1.1142578,1.1132812,1.1123047,1.1123047,1.1123047,1.1113281,1.1113281,1.1113281,1.1103516,1.109375,1.109375,1.109375,1.1083984,1.1074219,1.1074219,1.1064453,1.1064453,1.1054688,1.1054688,1.1054688,1.1054688,1.1054688,1.1054688,1.1054688,1.1044922,1.1064453,1.1083984,1.1162109,1.1328125,1.1445312,1.1533203,1.1572266,1.1582031,1.15625,1.15625,1.1572266,1.15625,1.1572266,1.1572266,1.15625,1.1572266,1.15625,1.15625,1.15625,1.1572266,1.1572266,1.1572266,1.1572266,1.15625,1.1572266,1.1572266,1.1582031,1.1582031,1.1591797,1.1591797,1.1591797,1.1591797,1.1591797,1.1601562,1.1601562,1.1611328,1.1621094,1.1630859,1.1650391,1.1660156,1.1679688,1.171875,1.1787109,1.1855469,1.1982422,1.3154297,1.390625,1.421875,1.4208984,1.4277344,1.4042969,1.3935547,1.4033203,1.3779297,1.3085938,1.3701172,1.1640625,1.1445312,1.1357422,1.1318359,1.1289062,1.1259766,1.1259766,1.1220703,1.1210938,1.1191406,1.1181641,1.1191406,1.1162109,1.1152344,1.1152344,1.1132812,1.1132812,1.1113281,1.1113281,1.1103516,1.109375,1.1083984,1.1083984,1.1074219,1.1083984,1.1083984,1.1083984,1.1083984,1.1074219,1.1083984,1.109375,1.1083984,1.109375,1.109375,1.109375,1.109375,1.1083984,1.1074219,1.1074219,1.1064453,1.1064453,1.1054688,1.1044922,1.1044922,1.1044922,1.1044922,1.1035156,1.1035156,1.1035156,1.1035156,1.1025391,1.1025391,1.1025391,1.1015625,1.1015625,1.1005859,1.1005859,1.1005859,1.1005859,1.1005859,1.1005859,1.0996094,1.0996094,1.1005859,1.1005859,1.0996094,1.0996094,1.0996094,1.0996094,1.0986328,1.0986328,1.0966797,1.0957031,1.09375,1.0908203,1.0878906,1.0839844,1.078125,1.0722656,1.0654297,1.0625,1.0595703,1.0585938,1.0576172,1.0566406,1.0556641,1.0546875,1.0556641,1.0556641,1.0556641,1.0546875,1.0546875,1.0546875,1.0546875,1.0537109,1.0537109,1.0527344,1.0527344,1.0527344,1.0527344,1.0517578,1.0517578,1.0517578,1.0517578,1.0517578,1.0517578,1.0517578,1.0527344,1.0527344,1.0527344,1.0537109,1.0546875,1.0576172,1.0605469,1.0654297,1.0673828,1.0703125,1.0722656,1.0712891,1.0683594,1.0683594,1.0595703,1.0498047,1.0449219,1.03125,1.0205078,1.015625,1.0087891,1.0058594,1.0048828,1.0029297,1.0058594,1.0039062
1.1835938,1.1826172,1.1816406,1.1777344,1.1787109,1.1767578,1.1757812,1.1728516,1.1708984,1.1699219,1.1699219,1.1699219,1.1689453,1.1679688,1.1679688,1.1669922,1.1660156,1.1660156,1.1650391,1.1640625,1.1640625,1.1630859,1.1630859,1.1621094,1.1621094,1.1611328,1.1611328,1.1611328,1.1601562,1.1601562,1.1601562,1.1591797,1.1572266,1.1513672,1.1455078,1.1376953,1.1289062,1.1240234,1.1201172,1.1171875,1.1152344,1.1142578,1.1132812,1.1123047,1.1123047,1.1123047,1.1113281,1.1103516,1.1103516,1.109375,1.109375,1.1083984,1.1083984,1.1074219,1.1064453,1.1064453,1.1064453,1.1054688,1.1044922,1.1044922,1.1044922,1.1054688,1.1064453,1.1054688,1.1054688,1.1044922,1.1074219,1.1123047,1.1240234,1.140625,1.1494141,1.1552734,1.1552734,1.1552734,1.1552734,1.1552734,1.15625,1.1552734,1.1552734,1.1552734,1.1552734,1.15625,1.1552734,1.1552734,1.15625,1.15625,1.1572266,1.15625,1.15625,1.15625,1.15625,1.1572266,1.1572266,1.1572266,1.1582031,1.1572266,1.1572266,1.1582031,1.1582031,1.1591797,1.1601562,1.1601562,1.1621094,1.1630859,1.1640625,1.1650391,1.1669922,1.1708984,1.1767578,1.1816406,1.1943359,1.3085938,1.4101562,1.4375,1.4345703,1.4453125,1.4169922,1.4335938,1.4199219,1.3408203,1.3515625,1.1572266,1.1435547,1.1308594,1.1318359,1.1279297,1.1269531,1.125,1.1220703,1.1210938,1.1191406,1.1191406,1.1181641,1.1171875,1.1152344,1.1152344,1.1142578,1.1142578,1.1132812,1.1123047,1.1113281,1.1103516,1.1103516,1.1103516,1.109375,1.109375,1.109375,1.1083984,1.109375,1.109375,1.109375,1.109375,1.1083984,1.1083984,1.109375,1.1103516,1.109375,1.1103516,1.1083984,1.1074219,1.1064453,1.1064453,1.1054688,1.1054688,1.1044922,1.1035156,1.1035156,1.1035156,1.1035156,1.1025391,1.1035156,1.1035156,1.1025391,1.1015625,1.1015625,1.1015625,1.1015625,1.1005859,1.1005859,1.1005859,1.1005859,1.1005859,1.1005859,1.0996094,1.0996094,1.0996094,1.0996094,1.0996094,1.0986328,1.0986328,1.0996094,1.0986328,1.0976562,1.0976562,1.0957031,1.09375,1.0917969,1.0888672,1.0849609,1.0800781,1.0742188,1.0693359,1.0644531,1.0615234,1.0605469,1.0595703,1.0585938,1.0576172,1.0576172,1.0566406,1.0566406,1.0556641,1.0556641,1.0546875,1.0556641,1.0546875,1.0546875,1.0537109,1.0537109,1.0537109,1.0527344,1.0527344,1.0527344,1.0517578,1.0517578,1.0527344,1.0517578,1.0527344,1.0527344,1.0537109,1.0546875,1.0537109,1.0556641,1.0566406,1.0615234,1.0654297,1.0712891,1.0742188,1.078125,1.0810547,1.0820312,1.0810547,1.0800781,1.0800781,1.0771484,1.0634766,1.0380859,1.0263672,1.0166016,1.0126953,1.0097656,1.0087891,1.0117188,1.0078125,1.0009766
1.1826172,1.1796875,1.1787109,1.1757812,1.1757812,1.1738281,1.1728516,1.1708984,1.1699219,1.1679688,1.1689453,1.1679688,1.1669922,1.1669922,1.1660156,1.1650391,1.1650391,1.1640625,1.1640625,1.1630859,1.1621094,1.1621094,1.1611328,1.1601562,1.1601562,1.1601562,1.1601562,1.1591797,1.1591797,1.1591797,1.1582031,1.1582031,1.1572266,1.1533203,1.1494141,1.1435547,1.1367188,1.1298828,1.1230469,1.1171875,1.1171875,1.1142578,1.1132812,1.1123047,1.1123047,1.1113281,1.1103516,1.1103516,1.109375,1.109375,1.1083984,1.1083984,1.1074219,1.1064453,1.1064453,1.1064453,1.1054688,1.1044922,1.1044922,1.1044922,1.1044922,1.1054688,1.1064453,1.1054688,1.1064453,1.1054688,1.1103516,1.1162109,1.1298828,1.1445312,1.1523438,1.15625,1.1542969,1.1542969,1.1542969,1.1542969,1.1552734,1.1542969,1.1542969,1.1542969,1.1542969,1.1552734,1.1552734,1.1542969,1.1552734,1.15625,1.15625,1.15625,1.15625,1.15625,1.15625,1.15625,1.1572266,1.1572266,1.1572266,1.1572266,1.1572266,1.1582031,1.1582031,1.1591797,1.1591797,1.1601562,1.1621094,1.1630859,1.1640625,1.1660156,1.1669922,1.1708984,1.1748047,1.1796875,1.1933594,1.3203125,1.4199219,1.4423828,1.4433594,1.4580078,1.4658203,1.46875,1.4199219,1.3720703,1.2666016,1.1445312,1.1367188,1.1308594,1.1308594,1.1269531,1.1240234,1.1220703,1.1191406,1.1181641,1.1171875,1.1171875,1.1162109,1.1162109,1.1162109,1.1152344,1.1152344,1.1142578,1.1142578,1.1123047,1.1113281,1.1113281,1.1113281,1.1103516,1.1103516,1.1103516,1.109375,1.1083984,1.109375,1.109375,1.109375,1.109375,1.109375,1.109375,1.109375,1.1103516,1.1103516,1.1103516,1.1083984,1.1074219,1.1074219,1.1064453,1.1054688,1.1044922,1.1044922,1.1035156,1.1035156,1.1035156,1.1025391,1.1035156,1.1035156,1.1025391,1.1025391,1.1025391,1.1015625,1.1005859,1.1005859,1.1005859,1.1005859,1.1005859,1.1015625,1.1005859,1.1005859,1.0996094,1.0996094,1.0996094,1.0996094,1.0996094,1.0996094,1.0986328,1.0986328,1.0986328,1.0976562,1.0976562,1.0966797,1.09375,1.0917969,1.0888672,1.0859375,1.0810547,1.0791016,1.0732422,1.0693359,1.0644531,1.0634766,1.0615234,1.0615234,1.0595703,1.0585938,1.0585938,1.0585938,1.0576172,1.0566406,1.0566406,1.0556641,1.0556641,1.0556641,1.0546875,1.0546875,1.0537109,1.0537109,1.0546875,1.0537109,1.0537109,1.0537109,1.0537109,1.0537109,1.0546875,1.0546875,1.0556641,1.0566406,1.0566406,1.0585938,1.0615234,1.0644531,1.0703125,1.0761719,1.0791016,1.0839844,1.0888672,1.0927734,1.0976562,1.0966797,1.0986328,1.0986328,1.0927734,1.0771484,1.0517578,1.03125,1.0263672,1.0175781,1.0185547,1.0205078,1.0117188,1.0058594
1.1796875,1.1777344,1.1767578,1.1738281,1.1738281,1.171875,1.171875,1.1689453,1.1679688,1.1669922,1.1669922,1.1660156,1.1660156,1.1650391,1.1640625,1.1640625,1.1630859,1.1621094,1.1621094,1.1611328,1.1611328,1.1601562,1.1601562,1.1591797,1.1591797,1.1582031,1.1582031,1.1572266,1.1572266,1.1582031,1.1572266,1.1572266,1.15625,1.1542969,1.1523438,1.1474609,1.1425781,1.1367188,1.1279297,1.1201172,1.1181641,1.1162109,1.1132812,1.1123047,1.1113281,1.1103516,1.1103516,1.109375,1.1083984,1.1074219,1.1074219,1.1074219,1.1064453,1.1064453,1.1054688,1.1044922,1.1044922,1.1044922,1.1035156,1.1044922,1.1044922,1.1054688,1.1054688,1.1044922,1.1064453,1.1064453,1.1123047,1.1220703,1.1386719,1.1494141,1.1542969,1.1552734,1.1533203,1.1523438,1.1533203,1.1533203,1.1533203,1.1533203,1.1533203,1.1533203,1.1533203,1.1542969,1.1542969,1.1542969,1.1552734,1.1552734,1.1552734,1.1552734,1.1552734,1.1552734,1.1552734,1.1552734,1.15625,1.15625,1.1572266,1.1572266,1.1572266,1.1582031,1.1582031,1.1582031,1.1591797,1.1601562,1.1621094,1.1630859,1.1640625,1.1660156,1.1679688,1.1699219,1.1748047,1.1787109,1.1933594,1.3486328,1.4257812,1.4492188,1.453125,1.46875,1.4785156,1.4892578,1.3789062,1.1621094,1.1513672,1.1376953,1.1337891,1.1289062,1.1269531,1.1240234,1.1220703,1.1210938,1.1181641,1.1181641,1.1171875,1.1162109,1.1162109,1.1152344,1.1152344,1.1152344,1.1152344,1.1142578,1.1132812,1.1123047,1.1123047,1.1113281,1.1113281,1.1113281,1.1103516,1.1103516,1.1103516,1.109375,1.109375,1.109375,1.109375,1.109375,1.109375,1.109375,1.109375,1.1103516,1.1103516,1.1103516,1.109375,1.1064453,1.1064453,1.1054688,1.1054688,1.1044922,1.1044922,1.1035156,1.1035156,1.1035156,1.1035156,1.1035156,1.1025391,1.1025391,1.1025391,1.1015625,1.1005859,1.1005859,1.1005859,1.1005859,1.1005859,1.1005859,1.1005859,1.1005859,1.1005859,1.0996094,1.0996094,1.0996094,1.0996094,1.0996094,1.0986328,1.0986328,1.0986328,1.0986328,1.0976562,1.0976562,1.0957031,1.09375,1.0917969,1.0898438,1.0869141,1.0839844,1.0820312,1.0791016,1.0722656,1.0683594,1.0654297,1.0654297,1.0625,1.0615234,1.0605469,1.0595703,1.0585938,1.0585938,1.0585938,1.0576172,1.0576172,1.0566406,1.0566406,1.0566406,1.0556641,1.0556641,1.0556641,1.0556641,1.0556641,1.0556641,1.0546875,1.0546875,1.0546875,1.0556641,1.0566406,1.0576172,1.0595703,1.0605469,1.0644531,1.0683594,1.0712891,1.0771484,1.0830078,1.0849609,1.0898438,1.0947266,1.1025391,1.109375,1.1103516,1.1103516,1.1103516,1.109375,1.109375,1.1083984,1.0976562,1.0507812,1.0517578,1.0449219,1.0302734,1.0351562,1.0205078
1.1757812,1.1757812,1.1748047,1.1708984,1.1728516,1.1708984,1.1699219,1.1669922,1.1660156,1.1650391,1.1660156,1.1640625,1.1640625,1.1630859,1.1630859,1.1621094,1.1621094,1.1601562,1.1601562,1.1591797,1.1591797,1.1582031,1.1582031,1.1572266,1.1572266,1.15625,1.15625,1.15625,1.15625,1.15625,1.15625,1.15625,1.1552734,1.1533203,1.1523438,1.1503906,1.1455078,1.1425781,1.1367188,1.1269531,1.1220703,1.1171875,1.1152344,1.1132812,1.1123047,1.1103516,1.1103516,1.109375,1.1083984,1.1074219,1.1074219,1.1064453,1.1054688,1.1054688,1.1054688,1.1044922,1.1035156,1.1035156,1.1035156,1.1044922,1.1044922,1.1054688,1.1064453,1.1054688,1.1064453,1.1083984,1.1132812,1.1240234,1.140625,1.1503906,1.1552734,1.1542969,1.1523438,1.1513672,1.1523438,1.1523438,1.1523438,1.1523438,1.1523438,1.1533203,1.1523438,1.1533203,1.1533203,1.1533203,1.1533203,1.1542969,1.1552734,1.1552734,1.1552734,1.1552734,1.1552734,1.1552734,1.15625,1.15625,1.15625,1.15625,1.1572266,1.1572266,1.1582031,1.1582031,1.1591797,1.1601562,1.1621094,1.1630859,1.1640625,1.1660156,1.1669922,1.1699219,1.1738281,1.1787109,1.1943359,1.375,1.4335938,1.4492188,1.4511719,1.4716797,1.4814453,1.4755859,1.1816406,1.1445312,1.1396484,1.1347656,1.1318359,1.1269531,1.125,1.1230469,1.1210938,1.1191406,1.1181641,1.1171875,1.1162109,1.1152344,1.1152344,1.1152344,1.1152344,1.1152344,1.1142578,1.1142578,1.1132812,1.1123047,1.1123047,1.1113281,1.1113281,1.1103516,1.1103516,1.1103516,1.1103516,1.109375,1.109375,1.109375,1.109375,1.109375,1.109375,1.109375,1.109375,1.1103516,1.1103516,1.1103516,1.109375,1.1064453,1.1064453,1.1054688,1.1054688,1.1054688,1.1044922,1.1044922,1.1035156,1.1035156,1.1035156,1.1025391,1.1025391,1.1025391,1.1025391,1.1015625,1.1015625,1.1015625,1.1005859,1.1005859,1.1005859,1.1005859,1.1005859,1.1005859,1.1005859,1.1005859,1.0996094,1.0996094,1.0996094,1.0996094,1.0986328,1.0986328,1.0986328,1.0986328,1.0976562,1.0966797,1.0957031,1.09375,1.0917969,1.0898438,1.0869141,1.0849609,1.0820312,1.0800781,1.078125,1.0722656,1.0703125,1.0693359,1.0654297,1.0644531,1.0625,1.0615234,1.0605469,1.0605469,1.0595703,1.0585938,1.0585938,1.0585938,1.0576172,1.0576172,1.0566406,1.0566406,1.0576172,1.0576172,1.0566406,1.0566406,1.0566406,1.0566406,1.0576172,1.0585938,1.0595703,1.0605469,1.0615234,1.0644531,1.0673828,1.0722656,1.0771484,1.0830078,1.0878906,1.0908203,1.0957031,1.1015625,1.1083984,1.1142578,1.1152344,1.1171875,1.1162109,1.1142578,1.1171875,1.1171875,1.1142578,1.1113281,1.1025391,1.0976562,1.0820312,1.0585938,1.0449219
1.1748047,1.171875,1.1728516,1.1699219,1.1708984,1.1689453,1.1679688,1.1660156,1.1650391,1.1640625,1.1630859,1.1630859,1.1630859,1.1621094,1.1611328,1.1601562,1.1601562,1.1591797,1.1582031,1.1582031,1.1572266,1.1572266,1.15625,1.15625,1.15625,1.1552734,1.1552734,1.1552734,1.1542969,1.1542969,1.1542969,1.1542969,1.1533203,1.1533203,1.1523438,1.1513672,1.1484375,1.1464844,1.1445312,1.1376953,1.1259766,1.1191406,1.1171875,1.1142578,1.1123047,1.1113281,1.1103516,1.109375,1.1083984,1.1074219,1.1064453,1.1064453,1.1054688,1.1044922,1.1044922,1.1044922,1.1035156,1.1035156,1.1035156,1.1044922,1.1044922,1.1054688,1.1064453,1.1054688,1.1083984,1.1103516,1.1162109,1.1289062,1.1435547,1.1523438,1.1542969,1.1533203,1.1513672,1.1513672,1.1513672,1.1513672,1.1523438,1.1523438,1.1513672,1.1523438,1.1513672,1.1523438,1.1523438,1.1523438,1.1523438,1.1533203,1.1542969,1.1542969,1.1552734,1.1552734,1.1552734,1.15625,1.15625,1.15625,1.15625,1.15625,1.1572266,1.1572266,1.1572266,1.1582031,1.1591797,1.1601562,1.1611328,1.1621094,1.1630859,1.1650391,1.1669922,1.1699219,1.1738281,1.1748047,1.1962891,1.4013672,1.4443359,1.4482422,1.4472656,1.4628906,1.4775391,1.4619141,1.1611328,1.1396484,1.1376953,1.1308594,1.1289062,1.1240234,1.1220703,1.1210938,1.1201172,1.1181641,1.1171875,1.1162109,1.1152344,1.1152344,1.1142578,1.1142578,1.1132812,1.1132812,1.1132812,1.1132812,1.1123047,1.1123047,1.1123047,1.1113281,1.1113281,1.1103516,1.1103516,1.109375,1.109375,1.109375,1.109375,1.109375,1.109375,1.109375,1.109375,1.109375,1.109375,1.1103516,1.1103516,1.1103516,1.109375,1.1064453,1.1064453,1.1064453,1.1064453,1.1054688,1.1044922,1.1035156,1.1035156,1.1035156,1.1035156,1.1025391,1.1025391,1.1025391,1.1015625,1.1015625,1.1015625,1.1015625,1.1005859,1.1005859,1.1005859,1.1015625,1.1005859,1.1005859,1.1005859,1.0996094,1.0996094,1.0996094,1.0996094,1.0996094,1.0986328,1.0986328,1.0986328,1.0976562,1.0976562,1.0966797,1.0957031,1.09375,1.0917969,1.0898438,1.0878906,1.0849609,1.0830078,1.0800781,1.0800781,1.078125,1.0742188,1.0712891,1.0693359,1.0664062,1.0654297,1.0634766,1.0625,1.0615234,1.0605469,1.0605469,1.0595703,1.0595703,1.0585938,1.0585938,1.0576172,1.0576172,1.0576172,1.0576172,1.0576172,1.0585938,1.0585938,1.0585938,1.0595703,1.0605469,1.0615234,1.0625,1.0664062,1.0703125,1.0742188,1.0791016,1.0849609,1.0888672,1.0927734,1.0957031,1.1015625,1.1074219,1.1142578,1.1201172,1.1201172,1.1201172,1.1191406,1.1181641,1.1181641,1.1191406,1.1191406,1.1152344,1.1113281,1.1064453,1.0966797,1.0869141,1.0703125
1.1708984,1.171875,1.171875,1.1679688,1.1689453,1.1660156,1.1660156,1.1640625,1.1630859,1.1621094,1.1621094,1.1611328,1.1611328,1.1601562,1.1601562,1.1591797,1.1582031,1.1572266,1.1572266,1.15625,1.15625,1.1552734,1.1552734,1.1552734,1.1552734,1.1542969,1.1533203,1.1533203,1.1533203,1.1533203,1.1533203,1.1533203,1.1523438,1.1533203,1.1523438,1.1503906,1.1503906,1.1484375,1.1513672,1.1445312,1.1347656,1.1259766,1.1191406,1.1152344,1.1142578,1.1132812,1.1113281,1.1083984,1.1074219,1.1064453,1.1054688,1.1044922,1.1044922,1.1035156,1.1035156,1.1035156,1.1025391,1.1035156,1.1035156,1.1044922,1.1044922,1.1044922,1.1054688,1.1064453,1.1103516,1.1113281,1.1201172,1.1357422,1.1464844,1.1523438,1.1542969,1.1523438,1.1513672,1.1513672,1.1513672,1.1513672,1.1513672,1.1513672,1.1513672,1.1513672,1.1513672,1.1513672,1.1513672,1.1513672,1.1523438,1.1533203,1.1533203,1.1533203,1.1533203,1.1533203,1.1542969,1.1552734,1.1552734,1.15625,1.15625,1.15625,1.15625,1.1572266,1.1572266,1.1582031,1.1591797,1.1611328,1.1621094,1.1630859,1.1640625,1.1679688,1.1679688,1.1699219,1.1728516,1.1738281,1.2021484,1.4150391,1.4423828,1.4453125,1.4443359,1.4677734,1.4824219,1.4560547,1.1503906,1.1376953,1.1347656,1.1269531,1.125,1.1220703,1.1210938,1.1201172,1.1191406,1.1171875,1.1152344,1.1152344,1.1142578,1.1142578,1.1142578,1.1132812,1.1123047,1.1123047,1.1123047,1.1123047,1.1123047,1.1113281,1.1113281,1.1113281,1.1113281,1.1103516,1.1103516,1.1103516,1.109375,1.109375,1.109375,1.109375,1.109375,1.1083984,1.109375,1.109375,1.109375,1.109375,1.1103516,1.1103516,1.109375,1.1064453,1.1064453,1.1064453,1.1054688,1.1044922,1.1035156,1.1035156,1.1035156,1.1035156,1.1025391,1.1015625,1.1025391,1.1015625,1.1015625,1.1015625,1.1015625,1.1015625,1.1005859,1.1005859,1.1015625,1.1015625,1.1015625,1.1005859,1.1005859,1.0996094,1.0996094,1.0996094,1.0996094,1.0996094,1.0986328,1.0986328,1.0986328,1.0976562,1.0976562,1.0966797,1.0957031,1.09375,1.0917969,1.0898438,1.0878906,1.0859375,1.0839844,1.0820312,1.0800781,1.078125,1.0761719,1.0751953,1.0712891,1.0693359,1.0693359,1.0673828,1.0664062,1.0644531,1.0634766,1.0625,1.0615234,1.0615234,1.0605469,1.0605469,1.0595703,1.0595703,1.0595703,1.0595703,1.0605469,1.0605469,1.0605469,1.0605469,1.0615234,1.0644531,1.0664062,1.0673828,1.0703125,1.0732422,1.078125,1.0849609,1.0908203,1.0986328,1.1035156,1.1064453,1.1113281,1.1142578,1.1191406,1.1230469,1.1230469,1.1240234,1.1210938,1.1210938,1.1191406,1.1191406,1.1181641,1.1152344,1.1123047,1.109375,1.1025391,1.0966797,1.0830078
1.1699219,1.1689453,1.1699219,1.1669922,1.1669922,1.1650391,1.1640625,1.1621094,1.1611328,1.1611328,1.1611328,1.1601562,1.1591797,1.1591797,1.1582031,1.1572266,1.15625,1.1552734,1.1552734,1.1542969,1.1542969,1.1533203,1.1533203,1.1533203,1.1533203,1.1523438,1.1523438,1.1523438,1.1523438,1.1523438,1.1523438,1.1513672,1.1513672,1.1523438,1.1513672,1.1513672,1.1513672,1.1542969,1.1582031,1.1572266,1.1455078,1.1367188,1.125,1.1181641,1.1171875,1.1132812,1.1103516,1.1074219,1.1064453,1.1054688,1.1044922,1.1035156,1.1025391,1.1025391,1.1025391,1.1025391,1.1025391,1.1035156,1.1035156,1.1044922,1.1044922,1.1054688,1.1064453,1.1064453,1.1103516,1.1162109,1.1298828,1.1455078,1.1503906,1.1542969,1.1523438,1.1523438,1.1513672,1.1513672,1.1513672,1.1513672,1.1503906,1.1503906,1.1503906,1.1503906,1.1503906,1.1503906,1.1513672,1.1513672,1.1513672,1.1523438,1.1523438,1.1523438,1.1533203,1.1523438,1.1533203,1.1533203,1.1542969,1.1552734,1.15625,1.15625,1.1572266,1.1572266,1.1582031,1.1591797,1.1601562,1.1611328,1.1621094,1.1640625,1.1660156,1.1689453,1.1689453,1.1708984,1.1748047,1.1777344,1.2226562,1.4462891,1.4404297,1.4472656,1.4443359,1.4628906,1.4765625,1.4072266,1.1435547,1.1328125,1.1289062,1.1240234,1.1220703,1.1201172,1.1191406,1.1181641,1.1162109,1.1162109,1.1152344,1.1142578,1.1132812,1.1132812,1.1123047,1.1123047,1.1123047,1.1123047,1.1113281,1.1113281,1.1113281,1.1103516,1.1103516,1.1103516,1.1103516,1.1103516,1.109375,1.109375,1.109375,1.109375,1.1083984,1.1083984,1.1083984,1.1083984,1.109375,1.109375,1.109375,1.1103516,1.1103516,1.1103516,1.109375,1.1064453,1.1064453,1.1064453,1.1054688,1.1044922,1.1035156,1.1035156,1.1025391,1.1035156,1.1025391,1.1015625,1.1015625,1.1005859,1.1015625,1.1015625,1.1015625,1.1005859,1.1005859,1.1005859,1.1005859,1.1015625,1.1005859,1.1005859,1.0996094,1.0996094,1.0996094,1.0996094,1.0996094,1.0996094,1.0986328,1.0986328,1.0986328,1.0976562,1.0966797,1.0966797,1.0947266,1.09375,1.0917969,1.0898438,1.0878906,1.0859375,1.0839844,1.0820312,1.0800781,1.0791016,1.078125,1.0771484,1.0751953,1.0742188,1.0722656,1.0703125,1.0683594,1.0673828,1.0664062,1.0644531,1.0634766,1.0625,1.0625,1.0615234,1.0605469,1.0605469,1.0605469,1.0615234,1.0605469,1.0605469,1.0615234,1.0615234,1.0625,1.0654297,1.0683594,1.0703125,1.0712891,1.0732422,1.0800781,1.0878906,1.09375,1.1054688,1.1132812,1.1171875,1.1191406,1.1210938,1.1240234,1.1269531,1.1259766,1.1259766,1.1240234,1.1230469,1.1210938,1.1210938,1.1191406,1.1171875,1.1142578,1.1132812,1.1074219,1.1044922,1.0976562
1.1679688,1.1669922,1.1679688,1.1650391,1.1660156,1.1640625,1.1630859,1.1611328,1.1601562,1.1591797,1.1591797,1.1582031,1.1582031,1.1572266,1.15625,1.15625,1.1552734,1.1542969,1.1542969,1.1533203,1.1523438,1.1523438,1.1523438,1.1523438,1.1513672,1.1513672,1.1513672,1.1513672,1.1513672,1.1503906,1.1503906,1.1503906,1.1503906,1.1523438,1.1513672,1.1503906,1.1523438,1.1572266,1.171875,1.1748047,1.1601562,1.1464844,1.1337891,1.125,1.1220703,1.1171875,1.1132812,1.1083984,1.1083984,1.1064453,1.1054688,1.1044922,1.1035156,1.1035156,1.1035156,1.1035156,1.1044922,1.1054688,1.1054688,1.1054688,1.1064453,1.1074219,1.1083984,1.1103516,1.1162109,1.1269531,1.1425781,1.1513672,1.1542969,1.1542969,1.1523438,1.1513672,1.1513672,1.1503906,1.1503906,1.1503906,1.1494141,1.1494141,1.1494141,1.1494141,1.1494141,1.1494141,1.1503906,1.1503906,1.1503906,1.1513672,1.1513672,1.1523438,1.1523438,1.1523438,1.1523438,1.1533203,1.1533203,1.1533203,1.1542969,1.1542969,1.1542969,1.1552734,1.15625,1.1582031,1.1591797,1.1601562,1.1630859,1.1640625,1.1660156,1.1689453,1.1708984,1.1738281,1.1777344,1.1923828,1.3525391,1.4521484,1.4335938,1.4443359,1.4414062,1.4658203,1.4746094,1.3769531,1.1376953,1.1298828,1.1259766,1.1220703,1.1210938,1.1191406,1.1181641,1.1171875,1.1162109,1.1152344,1.1142578,1.1142578,1.1132812,1.1132812,1.1123047,1.1123047,1.1123047,1.1113281,1.1113281,1.1103516,1.1103516,1.1103516,1.1103516,1.1103516,1.109375,1.109375,1.109375,1.109375,1.1083984,1.1083984,1.1083984,1.1083984,1.1083984,1.1083984,1.1083984,1.1083984,1.109375,1.1103516,1.1103516,1.1103516,1.1083984,1.1064453,1.1074219,1.1064453,1.1054688,1.1044922,1.1035156,1.1035156,1.1025391,1.1025391,1.1025391,1.1015625,1.1015625,1.1015625,1.1015625,1.1015625,1.1015625,1.1005859,1.1005859,1.1005859,1.1005859,1.1015625,1.1005859,1.1005859,1.0996094,1.0996094,1.0996094,1.0986328,1.0996094,1.0996094,1.0986328,1.0986328,1.0986328,1.0976562,1.0966797,1.0957031,1.0947266,1.0927734,1.0917969,1.0898438,1.0878906,1.0869141,1.0849609,1.0830078,1.0810547,1.0791016,1.078125,1.0771484,1.0751953,1.0742188,1.0732422,1.0712891,1.0703125,1.0693359,1.0664062,1.0664062,1.0644531,1.0634766,1.0634766,1.0634766,1.0634766,1.0625,1.0625,1.0625,1.0605469,1.0605469,1.0605469,1.0605469,1.0595703,1.0605469,1.0625,1.0634766,1.0644531,1.0683594,1.0751953,1.0830078,1.09375,1.1103516,1.1201172,1.1240234,1.1259766,1.1259766,1.1289062,1.1308594,1.1298828,1.1279297,1.125,1.1240234,1.1210938,1.1210938,1.1201172,1.1171875,1.1142578,1.1113281,1.1074219,1.1054688,1.1005859
1.1660156,1.1660156,1.1669922,1.1640625,1.1640625,1.1621094,1.1611328,1.1591797,1.1582031,1.1582031,1.1582031,1.1572266,1.15625,1.15625,1.1552734,1.1542969,1.1533203,1.1533203,1.1523438,1.1523438,1.1513672,1.1513672,1.1513672,1.1503906,1.1503906,1.1503906,1.1503906,1.1494141,1.1494141,1.1494141,1.1484375,1.1494141,1.1494141,1.1503906,1.1503906,1.1484375,1.1523438,1.15625,1.1777344,1.1923828,1.1835938,1.171875,1.1474609,1.1337891,1.1308594,1.1201172,1.1142578,1.1113281,1.1103516,1.1074219,1.1054688,1.1044922,1.1044922,1.1044922,1.1044922,1.1044922,1.1054688,1.1054688,1.1064453,1.1074219,1.109375,1.109375,1.1123047,1.1162109,1.1318359,1.1474609,1.1542969,1.1591797,1.1582031,1.1542969,1.1533203,1.1523438,1.1513672,1.1494141,1.1494141,1.1484375,1.1484375,1.1484375,1.1484375,1.1494141,1.1494141,1.1494141,1.1494141,1.1503906,1.1503906,1.1513672,1.1513672,1.1513672,1.1513672,1.1513672,1.1513672,1.1523438,1.1523438,1.1523438,1.1533203,1.1533203,1.1542969,1.1542969,1.1552734,1.15625,1.1572266,1.1591797,1.1611328,1.1630859,1.1650391,1.1669922,1.1699219,1.1738281,1.1787109,1.1992188,1.3789062,1.4462891,1.4296875,1.4355469,1.4404297,1.4609375,1.4257812,1.1572266,1.1337891,1.1259766,1.1240234,1.1210938,1.1201172,1.1181641,1.1171875,1.1162109,1.1152344,1.1142578,1.1142578,1.1132812,1.1132812,1.1123047,1.1123047,1.1113281,1.1103516,1.1103516,1.1103516,1.1103516,1.109375,1.109375,1.109375,1.109375,1.1083984,1.1083984,1.1083984,1.1083984,1.1083984,1.1083984,1.1083984,1.1083984,1.1083984,1.1083984,1.1083984,1.1083984,1.1083984,1.109375,1.1103516,1.1103516,1.109375,1.1074219,1.1074219,1.1064453,1.1054688,1.1044922,1.1035156,1.1035156,1.1025391,1.1025391,1.1025391,1.1015625,1.1015625,1.1015625,1.1015625,1.1005859,1.1015625,1.1015625,1.1005859,1.1005859,1.1005859,1.1005859,1.1005859,1.1005859,1.0996094,1.0996094,1.0996094,1.0996094,1.0986328,1.0986328,1.0996094,1.0986328,1.0976562,1.0976562,1.0966797,1.0957031,1.09375,1.0927734,1.0908203,1.0888672,1.0869141,1.0859375,1.0839844,1.0820312,1.0800781,1.078125,1.0771484,1.0751953,1.0742188,1.0722656,1.0722656,1.0722656,1.0712891,1.0712891,1.0693359,1.0673828,1.0664062,1.0654297,1.0654297,1.0644531,1.0634766,1.0644531,1.0634766,1.0625,1.0615234,1.0605469,1.0605469,1.0595703,1.0585938,1.0595703,1.0595703,1.0595703,1.0605469,1.0634766,1.0712891,1.0791016,1.0927734,1.1171875,1.1289062,1.1328125,1.1337891,1.1328125,1.1337891,1.1347656,1.1328125,1.1298828,1.1269531,1.125,1.1220703,1.1210938,1.1191406,1.1181641,1.1142578,1.1103516,1.1074219,1.1035156,1.1035156
